# .PCD v0.7 - Point Cloud Data file format
VERSION 0.7
FIELDS x y z
SIZE 4 4 4
TYPE F F F
COUNT 1 1 1
WIDTH 1230
HEIGHT 1
VIEWPOINT 0 0 0 1 0 0 0
POINTS 1230
DATA ascii
-0.14700511 0.012250394 -0.004340901
-0.13892882 0.012314666 -0.0043193605
-0.13294415 0.012153698 -0.0048255287
-0.12945908 0.012446694 -0.0045022261
-0.12805437 0.012174293 -0.0049805068
-0.12566833 0.012671158 -0.0041843196
-0.12174355 0.012125164 -0.0048362538
-0.11774217 0.01244962 -0.0047792811
-0.11637893 0.012187563 -0.0045964904
-0.11427992 0.012476966 -0.004471451
-0.11112301 0.012380627 -0.0044462117
-0.11024555 0.012169851 -0.0044004824
-0.10982279 0.012734756 -0.0041469811
-0.10798034 0.01259628 -0.0041526444
-0.1042037 0.012252755 -0.0048737377
-0.099074587 0.012673406 -0.0048839794
-0.096819773 0.012542963 -0.0045401575
-0.095922314 0.012418186 -0.004723398
-0.090013124 0.012133751 -0.004646102
-0.088343002 0.012497306 -0.004900977
-0.087403096 0.012157105 -0.00487111
-0.084558204 0.01274216 -0.0042982856
-0.083626226 0.012250926 -0.0045906189
-0.07959386 0.012338006 -0.0045472751
-0.072234854 0.012097046 -0.0045050373
-0.067216754 0.012606591 -0.0041352361
-0.066809274 0.012953984 -0.0040695309
-0.06015642 0.012243936 -0.0042027505
-0.058864158 0.012362178 -0.0049730064
-0.052895501 0.012570251 -0.0043937629
-0.050223015 0.012637836 -0.0044729048
-0.048781931 0.01251974 -0.0045904717
-0.047593772 0.012090961 -0.0047008465
-0.043199163 0.012145838 -0.0049015288
-0.042614948 0.012336989 -0.0047120969
-0.038457289 0.012311998 -0.0043838969
-0.034299385 0.012359818 -0.0045324201
-0.032795984 0.012098961 -0.0044989027
-0.031307872 0.01273388 -0.0046566352
-0.024762163 0.012827621 -0.0047348812
-0.02256107 0.012086355 -0.0042460184
-0.020369638 0.012821496 -0.0046924772
-0.013813952 0.012735127 -0.004660035
-0.012321206 0.012096116 -0.0045008017
-0.010816542 0.012355042 -0.0045381985
-0.0066858269 0.012304627 -0.0045089587
-0.00250285 0.012339354 -0.0047159963
-0.0019152649 0.012140144 -0.004905297
0.002474041 0.012090931 -0.0047009392
0.0036645124 0.012526181 -0.0045812661
0.0049401643 0.012697047 -0.0047627776
0.0052995435 0.012581454 -0.0041878438
0.0077757253 0.012570251 -0.0043937052
0.013752518 0.012352563 -0.0049617533
0.015042777 0.012253098 -0.0042135459
0.021698598 0.012951747 -0.0040709744
0.02207976 0.012601733 -0.004132479
0.027114969 0.012097165 -0.0045050522
0.034472775 0.012336654 -0.0045545236
0.038509279 0.012255449 -0.0045851297
0.039438583 0.012739174 -0.0042970553
0.042285372 0.012155782 -0.0048708548
0.043224443 0.012500614 -0.0049077254
0.044893466 0.012133691 -0.0046462081
0.05079823 0.01241501 -0.0047280695
0.051699013 0.012539476 -0.0045472304
0.053948801 0.012680719 -0.0048690811
0.059091814 0.012258247 -0.0048700394
0.062856153 0.012592853 -0.0041623153
0.064698763 0.01273692 -0.0041481936
0.065563798 0.012277298 -0.0044319769
0.069165245 0.012471914 -0.0044775251
0.07125923 0.012187563 -0.0045964904
0.072632343 0.012439737 -0.0047676787
0.076625086 0.012122379 -0.0048332708
0.08054658 0.012668545 -0.0041898321
0.081266366 0.012028586 -0.0049993219
0.082937025 0.012176082 -0.0049817641
0.08432132 0.012441005 -0.0045137941
0.087824374 0.012153877 -0.0048254151
0.093815975 0.012308594 -0.0043233652
0.10188947 0.012247078 -0.0043415995
0.1051397 0.012480001 -0.0044849296
0.10638563 0.012328822 -0.0048878379
0.10773245 0.012117811 -0.0048144022
0.11206083 0.012106819 -0.0045932923
0.11756843 0.012315593 -0.0044546998
0.11887372 0.012043962 -0.0049360753
0.11945443 0.012139387 -0.0047952775
0.12004269 0.012670718 -0.0049031572
0.12588057 0.01246648 -0.0040096557
0.12653029 0.012289882 -0.0046591461
0.12838981 0.012045626 -0.0040746164
0.13142477 0.01240987 -0.0046176175
0.13294956 0.012997922 -0.0045049004
0.13425563 0.012310125 -0.0040723402
0.13597274 0.012533348 -0.0045587607
0.13600355 0.012420142 -0.0041218246
0.1389482 0.012162045 -0.0047889608
0.14402434 0.012234099 -0.0049918396
0.14572355 0.012456387 -0.0048344322
0.15612464 0.012041312 -0.004766969
0.15741223 0.012314713 -0.0045862654
0.16307229 0.012159456 -0.0047595557
0.16439779 0.01271821 -0.0046530636
0.16576393 0.012779795 -0.0045565255
0.16614635 0.012070455 -0.0046800245
-0.17107208 0.013057953 -0.0047404617
-0.15286252 0.013279248 -0.0041605583
-0.10856217 0.013112092 -0.0048676506
-0.095919579 0.01304548 -0.0043645399
-0.065370269 0.01300841 -0.004224367
0.020257454 0.013007248 -0.0042303894
0.050751697 0.013056839 -0.0043710954
0.063456073 0.013109045 -0.0048738131
0.10775406 0.013276763 -0.0041621104
0.12595567 0.013056589 -0.0047442913
0.16409752 0.0130767 -0.0041610077
-0.16586369 -0.009117756 -0.003007713
-0.15560627 -0.0090893786 -0.0034240149
-0.14721949 -0.0091359299 -0.0038644634
-0.14192227 -0.0090888478 -0.003864672
-0.14022794 -0.0090958234 -0.003669139
-0.13529333 -0.009142898 -0.0034026019
-0.13490117 -0.0091327559 -0.003448192
-0.12669936 -0.0090954509 -0.0031957477
-0.12274686 -0.0091365669 -0.0034408104
-0.079670027 -0.0091022244 -0.0031434018
-0.0664168 -0.0091055473 -0.0035764631
-0.065239564 -0.0091180252 -0.0035338048
-0.06454315 -0.009121038 -0.0037231315
-0.052335396 -0.0091180624 -0.0035301601
-0.05177046 -0.0091177765 -0.0032986482
0.0067936266 -0.0091166962 -0.0032822161
0.0074953409 -0.0091243926 -0.0037934007
0.019423854 -0.0091249328 -0.0037219962
0.020119861 -0.0091179656 -0.0035338048
0.021297112 -0.0091055473 -0.0035764482
0.034550365 -0.0091022244 -0.003143372
0.077627152 -0.0091347042 -0.003440313
0.081579626 -0.0090953317 -0.0031956881
0.089781404 -0.0091365911 -0.0034470372
0.090173632 -0.0091391634 -0.0034015998
0.095109597 -0.0090919882 -0.0036680996
0.096802607 -0.0090888478 -0.0038646422
0.10209969 -0.0091397157 -0.0038633496
0.11048803 -0.0090854559 -0.0034251735
0.1207483 -0.0091096871 -0.0030077726
0.12751149 -0.0091098137 -0.0030241937
0.13431358 -0.0091058575 -0.0030406744
0.14115267 -0.0091017522 -0.0030573041
0.14602897 -0.0091510359 -0.0039099231
0.14802663 -0.0091019385 -0.0030739338
0.15494059 -0.0090977848 -0.0030907721
0.15796185 -0.0091529274 -0.0033229031
0.15873422 -0.0090783611 -0.0031220689
0.16188993 -0.0090978816 -0.0031076104
0.16887993 -0.0090938546 -0.0031245977
0.16988108 -0.0091541242 -0.0033069625
0.17270932 -0.0090748295 -0.0036021918
-0.17439817 -0.0084396768 -0.00348619
-0.17080039 -0.0084177665 -0.0030627064
-0.16986482 -0.0082848594 -0.0039938418
-0.16732147 -0.0082391296 -0.0033171619
-0.16633645 -0.0081615895 -0.0031089466
-0.16317883 -0.008682292 -0.0036024265
-0.15948784 -0.008130189 -0.0037743151
-0.15888165 -0.0083751818 -0.0032004449
-0.15066674 -0.0083523914 -0.0032317666
-0.14683388 -0.0083993059 -0.0032046735
-0.14515108 -0.0082339011 -0.0030399719
-0.14374799 -0.0086627044 -0.0032552555
-0.14255145 -0.0083591342 -0.0031964509
-0.13471809 -0.0083234766 -0.0034247003
-0.12658548 -0.0083798282 -0.0031267134
-0.12524876 -0.0083279237 -0.0034994106
-0.12365368 -0.0086535066 -0.0033784229
-0.12230875 -0.0083804596 -0.0033498798
-0.11873788 -0.0083864219 -0.0030925004
-0.11470014 -0.0081703961 -0.0036115646
-0.1109737 -0.0083964467 -0.0030585853
-0.1097454 -0.0084211053 -0.0032333704
-0.10326303 -0.0085198106 -0.0034697312
-0.097205386 -0.0083610918 -0.0034985542
-0.093484178 -0.008130556 -0.0033764527
-0.090158239 -0.0086122137 -0.0038904343
-0.087575473 -0.0080019254 -0.0031946339
-0.084372669 -0.0084239282 -0.0035084169
-0.077840313 -0.0080019254 -0.0038448628
-0.076074727 -0.0080939494 -0.0030541117
-0.071386769 -0.0082137026 -0.0033907832
-0.068744048 -0.0085981144 -0.0033729034
-0.059460483 -0.0085204821 -0.0037244004
-0.058420405 -0.0083312523 -0.0037282011
-0.053095419 -0.0080506904 -0.003603586
-0.046704963 -0.0085777584 -0.0034636448
-0.045179889 -0.0083209872 -0.0038066478
-0.035454713 -0.0085434373 -0.003043117
-0.03177857 -0.008310684 -0.0038860193
-0.026906263 -0.0083002523 -0.0039663594
-0.01821341 -0.0083001927 -0.0039663594
-0.013341095 -0.0083108032 -0.0038859742
-0.0096668862 -0.008546859 -0.0030439952
5.9148297e-05 -0.0083178282 -0.0038087387
0.0015852111 -0.008577669 -0.0034636722
0.0079756575 -0.0080506308 -0.0036035711
0.013299698 -0.0083280141 -0.0037303297
0.014340818 -0.0085204821 -0.0037243944
0.023624334 -0.0085980762 -0.003371954
0.026265401 -0.0082107093 -0.0033921814
0.030957397 -0.0080966409 -0.0030546202
0.032724597 -0.0080072172 -0.0038481895
0.03925363 -0.0084206155 -0.0035099573
0.042455789 -0.008001985 -0.0031946599
0.045039885 -0.008615436 -0.0038895123
0.048359968 -0.0081251021 -0.003377642
0.0520849 -0.0083579179 -0.0035006087
0.058145449 -0.0085143941 -0.0034693233
0.064625353 -0.0084195388 -0.0032343986
0.065856867 -0.008392714 -0.0030586449
0.069578357 -0.0081677325 -0.0036121681
0.073621146 -0.0083825402 -0.0030925004
0.077188432 -0.0083773676 -0.0033518951
0.078532822 -0.0086502619 -0.0033775307
0.079991974 -0.0084614046 -0.0034506507
0.080268174 -0.0081968978 -0.003548706
0.081471726 -0.0083724 -0.0031267432
0.089598574 -0.0083203753 -0.003425569
0.097434901 -0.008355327 -0.0031963913
0.098629273 -0.0086657964 -0.0032542981
0.10003315 -0.0082364045 -0.0030404562
0.10171363 -0.00839624 -0.0032066517
0.10555354 -0.0083446987 -0.0032318262
0.11376342 -0.0083717303 -0.0032014321
0.11436677 -0.0081278458 -0.0037759319
0.11806005 -0.0086854212 -0.0036015175
0.12121822 -0.0081640184 -0.0031104516
0.12220272 -0.0082359649 -0.0033179955
0.12474505 -0.0082847998 -0.0039938567
0.12568034 -0.0084147863 -0.0030646697
0.1292783 -0.0084377676 -0.0034860875
0.13046308 -0.0083200261 -0.0033405451
0.13509578 -0.0084050968 -0.0037644319
0.13683285 -0.0084478129 -0.0038574766
0.13896072 -0.0083090439 -0.0033776192
0.14264694 -0.0083206594 -0.0035008416
0.14755733 -0.008297883 -0.0034151105
0.14807093 -0.0087136552 -0.0030209087
0.15159333 -0.0083944052 -0.0032694191
0.15281962 -0.0080061257 -0.0039409325
0.15625094 -0.0082906261 -0.0034530489
0.1598272 -0.0083549395 -0.003027698
0.16352597 -0.0083768442 -0.0033461265
0.16505066 -0.0082791373 -0.0034914045
0.16662635 -0.0087310225 -0.0030060932
0.16806105 -0.0083620846 -0.0031819791
0.17710675 -0.0087397024 -0.0036660209
-0.17574631 -0.0079497416 -0.0034818668
-0.1738175 -0.0076242611 -0.0033975802
-0.1723116 -0.0077943541 -0.0031840038
-0.16892777 -0.0070858002 -0.0037405819
-0.16415724 -0.0078131109 -0.0034591872
-0.15920071 -0.0077607371 -0.0031394111
-0.15855129 -0.0077247247 -0.0036829244
-0.15513226 -0.0078727752 -0.0039443579
-0.15434922 -0.0079751881 -0.0030407095
-0.15359706 -0.0071294401 -0.003601036
-0.15267859 -0.0074723996 -0.0030124579
-0.15053114 -0.0075042695 -0.0032786503
-0.14961219 -0.0077146678 -0.0034009528
-0.14795704 -0.0075085182 -0.0030676844
-0.1455034 -0.0077724657 -0.003066947
-0.14250794 -0.007746622 -0.003358583
-0.1408121 -0.0078637786 -0.0039269943
-0.13819388 -0.0071789511 -0.0035222203
-0.13665228 -0.0079321107 -0.0036429728
-0.1338948 -0.0078393221 -0.0032928586
-0.1323711 -0.007326453 -0.0035418409
-0.13174227 -0.0076888409 -0.0030440046
-0.13054197 -0.007559116 -0.0039485646
-0.12965511 -0.0075017549 -0.003879685
-0.12423486 -0.0076056365 -0.0032556488
-0.12360784 -0.0073907995 -0.0033944091
-0.12164889 -0.0078026578 -0.0033751866
-0.12064135 -0.0076495488 -0.0035450319
-0.11849773 -0.0077348985 -0.0031255707
-0.11185615 -0.0077886125 -0.0035240434
-0.10937093 -0.0072663054 -0.0033174187
-0.10888747 -0.0075349184 -0.0037192181
-0.10662761 -0.00774456 -0.0037385006
-0.1040368 -0.0071125375 -0.0037154132
-0.10294279 -0.0074661076 -0.0036556888
-0.098199412 -0.0078826854 -0.0039698631
-0.097694606 -0.0075762114 -0.0031968919
-0.09686292 -0.0079140663 -0.0038069654
-0.095616758 -0.0073103458 -0.0032196075
-0.094948195 -0.0077773966 -0.0039387736
-0.092623048 -0.0073241796 -0.0039520646
-0.091464356 -0.0073085278 -0.0038673878
-0.089055277 -0.0075929649 -0.0035310909
-0.087723061 -0.0073767407 -0.0031639044
-0.085149035 -0.0077709872 -0.0030631684
-0.083436042 -0.0076005161 -0.0035772545
-0.082149208 -0.0074431822 -0.0032901317
-0.080012023 -0.0071777254 -0.0038267823
-0.078299731 -0.0079850238 -0.0036698813
-0.07772354 -0.0078552477 -0.0031223781
-0.076792255 -0.0078821853 -0.0036685765
-0.069319084 -0.0075185793 -0.0030875918
-0.068705149 -0.0077890242 -0.0033139898
-0.066606589 -0.0077456329 -0.0039770259
-0.065494969 -0.0072723408 -0.003765228
-0.061634157 -0.0078183841 -0.0035461169
-0.058885187 -0.0076368195 -0.003218106
-0.057753108 -0.0073925313 -0.0039298115
-0.056359593 -0.0078957025 -0.0039739236
-0.053890847 -0.0074643791 -0.0039169202
-0.052255817 -0.0077026486 -0.0032654125
-0.051253553 -0.0075747473 -0.0039357613
-0.050471373 -0.0075745294 -0.0033972259
-0.049298212 -0.0074996743 -0.003491465
-0.047992103 -0.0076220576 -0.0039664982
-0.042593896 -0.0073713558 -0.0033278419
-0.038642865 -0.0074221846 -0.0035487271
-0.031860236 -0.0076731662 -0.0037631986
-0.030489976 -0.0071724355 -0.0039830361
-0.029275071 -0.0071807937 -0.0033524605
-0.026145447 -0.0072359876 -0.003332692
-0.025483666 -0.0072632623 -0.0031416593
-0.01932079 -0.0072453897 -0.0032348279
-0.015911354 -0.0071676392 -0.0032887231
-0.013255795 -0.0076682745 -0.0037575501
-0.0064746751 -0.0074186698 -0.003541653
-0.002528039 -0.0073749851 -0.0033206181
0.0028724014 -0.0076220576 -0.0039664982
0.0039941631 -0.0071154339 -0.0034087179
0.0046212506 -0.0079333894 -0.003071191
0.0053690271 -0.0075757671 -0.0033964734
0.0061431397 -0.0075806724 -0.0039319191
0.0071377195 -0.0077050328 -0.0032625906
0.0087726749 -0.0074678063 -0.003923879
0.011239508 -0.0078928657 -0.0039769216
0.012637082 -0.0073903985 -0.0039311862
0.013763787 -0.0076394128 -0.0032233964
0.016519964 -0.0078125726 -0.0035499418
0.020385999 -0.0072649848 -0.0037725428
0.021489883 -0.0077502662 -0.00398234
0.023587469 -0.0077916486 -0.0033156518
0.024194397 -0.0075177327 -0.0030863765
0.031675778 -0.0078792144 -0.0036679078
0.032389991 -0.0074285637 -0.0032935815
0.033180051 -0.0079850834 -0.0036699055
0.034881599 -0.0071694576 -0.0038822012
0.036887717 -0.0075289961 -0.0034648865
0.037558772 -0.0076108985 -0.0035151583
0.038610168 -0.0073260814 -0.00318739
0.040030718 -0.0077733276 -0.0030658282
0.042606134 -0.0073731709 -0.0031567719
0.043942418 -0.0075855125 -0.0035224799
0.046332352 -0.0073151216 -0.0038713426
0.047500439 -0.0073279161 -0.0039446699
0.049834497 -0.0077715237 -0.0039350707
0.050492678 -0.0073125474 -0.0032195777
0.051743031 -0.0079112649 -0.0038099177
0.0525661 -0.0075697517 -0.0032061785
0.053080697 -0.0078798747 -0.0039668563
0.057822071 -0.0074625611 -0.0036627408
0.058922485 -0.007109954 -0.0037085055
0.061518714 -0.0077471016 -0.0037330391
0.063789129 -0.0075415866 -0.0037150197
0.064242125 -0.0072709732 -0.0033172399
0.066735141 -0.007787711 -0.0035235272
0.072245717 -0.0076583028 -0.0030037384
0.073384449 -0.0077288635 -0.003121715
0.075518273 -0.0076487595 -0.0035373101
0.076531462 -0.0078071468 -0.0033698501
0.078471661 -0.0073893722 -0.0033872765
0.079109378 -0.0076038167 -0.0032546888
0.084532812 -0.0075043291 -0.0038766153
0.08540424 -0.0075532496 -0.0039601121
0.086630285 -0.0076950882 -0.003052474
0.087229863 -0.0073211086 -0.0035158591
0.088777192 -0.0078438371 -0.0032979976
0.091532536 -0.0079319915 -0.0036429728
0.09306442 -0.0071837306 -0.0035220415
0.095693722 -0.0078609344 -0.0039239051
0.097388372 -0.0077465624 -0.0033585699
0.10039131 -0.0077764071 -0.0030666078
0.1028369 -0.0075050043 -0.0030746053
0.10449256 -0.0077154706 -0.0034026364
0.10541964 -0.0074965358 -0.0032697059
0.1075617 -0.0074698031 -0.0030155722
0.10846275 -0.0071365479 -0.003603057
0.1092298 -0.0079698628 -0.0030351812
0.11002572 -0.0078831501 -0.0039375424
0.11344961 -0.0077308509 -0.0036791174
0.11408447 -0.0077637807 -0.0031435294
0.11903601 -0.0078161377 -0.0034560114
0.12379241 -0.0070931539 -0.0037403733
0.12719515 -0.0077972859 -0.0031879088
0.12871277 -0.0076116771 -0.0034058094
0.12962672 -0.0076820403 -0.0030614045
0.13062657 -0.007949682 -0.0034818668
0.13108012 -0.0075986376 -0.0030344469
0.13245746 -0.0076787695 -0.0037451349
0.13448422 -0.0079121068 -0.0035181846
0.13656822 -0.0075794179 -0.0032799481
0.13957162 -0.0076738643 -0.0037075558
0.14009228 -0.007898517 -0.0034706537
0.1420256 -0.0075874031 -0.0039761737
0.14433467 -0.0079827048 -0.0030691028
0.14725824 -0.0077888933 -0.0033004179
0.15181361 -0.0074096993 -0.0039717061
0.15227038 -0.007860031 -0.0032710563
0.15393503 -0.0078891814 -0.003197853
0.1560394 -0.0078932308 -0.0036482667
0.15816414 -0.00757722 -0.0039415755
0.15907562 -0.0072304197 -0.0035939664
0.16203181 -0.0078204907 -0.0033084699
0.16347004 -0.0077960175 -0.003627494
0.16426915 -0.0078907236 -0.0033117961
0.16904292 -0.0079698032 -0.0033205701
0.17218028 -0.0078794695 -0.0033358918
0.17592861 -0.0079205632 -0.003351273
0.17742577 -0.007974267 -0.0037227422
-0.17722994 -0.0060694516 -0.0032355078
-0.17580675 -0.0068790503 -0.0031937528
-0.1730222 -0.0062983781 -0.0030109761
-0.17003019 -0.0069383923 -0.0030532703
-0.15327014 -0.0067137592 -0.0034289602
-0.15105884 -0.0067238659 -0.0038696909
-0.14717096 -0.0067868289 -0.0035358605
-0.12525804 -0.0069991052 -0.0033180662
-0.077368774 -0.006989032 -0.0034028664
-0.064755253 -0.0069915028 -0.0036339429
0.019632218 -0.006992084 -0.0036309436
0.080138318 -0.006999135 -0.0033180737
0.10199284 -0.006795954 -0.0035798948
0.10596695 -0.0067174956 -0.0038736924
0.10808361 -0.006728936 -0.003437405
0.12490392 -0.0069411471 -0.0030456483
0.12686254 -0.0069991499 -0.0037394944
0.15663251 -0.0069938451 -0.0039737849
0.17589442 -0.0067868829 -0.0033371402
-0.17557175 -0.005974412 -0.003900798
0.17522407 -0.0057425275 -0.0036598786
-0.17545727 -0.0044259969 -0.0030115144
0.17437693 -0.0042546149 -0.0034287907
0.17589632 -0.002286423 -0.0032761702
0.17364039 -0.001856897 -0.0032219819
0.17522426 -0.0012135357 -0.0037527331
-0.17557183 -0.00098988786 -0.0037090196
-0.17488377 -0.00087246671 -0.0031848401
-0.17303289 -0.00024274364 -0.0032919981
-0.17657998 0.00061048195 -0.0030037798
-0.17567287 0 -0.0030196719
0.17437693 0 -0.0034287907
0.176829 0.00069550797 -0.0037640159
0.17268147 0.0012102835 -0.0032706074
0.17477635 0.0018414408 -0.0030340597
-0.17744488 0.002680013 -0.0036261552
0.17363913 0.0029396918 -0.0035456782
0.17589813 0.0022356398 -0.003214963
0.17728248 0.0022543669 -0.0035134926
-0.17556961 0.0039714426 -0.0035195791
0.17523763 0.0036190283 -0.0036102622
0.17633349 0.0038332231 -0.0032893994
-0.17567287 0.0046007899 -0.0030196719
0.17437693 0.0042546149 -0.0034287907
-0.17658448 0.0055821314 -0.003192042
-0.17427215 0.0058570392 -0.0031412952
-0.17304341 0.0057479627 -0.0035700351
0.17315432 0.0058656484 -0.003710486
0.1740987 0.0053043701 -0.0039342465
0.17683291 0.0054037124 -0.0034679279
0.17313513 0.0064746169 -0.0037058638
0.17477721 0.0063537508 -0.0030956997
0.17589989 0.006779436 -0.0031534559
-0.17511639 0.0078165457 -0.0031230021
0.17363778 0.0077522621 -0.003870453
0.17548779 0.0078211688 -0.0035167169
-0.17678285 0.0080688726 -0.0038690534
-0.17556748 0.0089105777 -0.0033309478
-0.1742028 0.0082461871 -0.0036958419
-0.17260338 0.00805787 -0.0035443762
0.17437693 0.0085092299 -0.0034287907
0.17633171 0.0085192127 -0.0035875593
-0.17567287 0.0092015797 -0.0030196719
-0.17380977 0.0094905272 -0.0039827991
0.1741012 0.0098235533 -0.0038409568
0.17525113 0.009857893 -0.0038453173
-0.17658888 0.010576203 -0.0033811596
-0.17526685 0.010454446 -0.0038685659
-0.17167205 0.010894544 -0.003007713
-0.15939565 0.010859776 -0.0037668087
-0.14733702 0.010859776 -0.0033906754
-0.14129351 0.010909846 -0.003324315
-0.13527925 0.010859776 -0.0038771369
-0.12772337 0.010908213 -0.0037616342
-0.12611772 0.010901164 -0.003695339
-0.11270075 0.010899711 -0.0032255538
-0.078089632 0.010870452 -0.0033629499
-0.07738781 0.010873264 -0.0036255568
-0.066004366 0.010896537 -0.0030457061
-0.065488935 0.010871792 -0.0038180966
-0.064718172 0.010878599 -0.0032019364
-0.052860405 0.010895126 -0.0034766449
-0.051686261 0.010884371 -0.0037571872
-0.039788488 0.010889724 -0.0039064214
-0.038687181 0.01088291 -0.0032948162
-0.0064324941 0.01088291 -0.0032948311
-0.0053311503 0.010889724 -0.0039063767
0.0065657706 0.010888224 -0.0037582722
0.0077414941 0.010891174 -0.0034778006
0.019598477 0.01087854 -0.0032019513
0.020627391 0.010882313 -0.0034324881
0.032619182 0.010873781 -0.0034937048
0.06758105 0.010899711 -0.0032255538
0.080997989 0.010901283 -0.0036953837
0.082603656 0.010908213 -0.0037616342
0.090159602 0.010859717 -0.0038770773
0.096173868 0.010909846 -0.0033242702
0.10221735 0.010859799 -0.0033896342
0.11427589 0.010859776 -0.0037667789
0.12655671 0.010886494 -0.0030077726
0.13333558 0.010891415 -0.0030241937
0.14015347 0.010892287 -0.0030406744
0.1440711 0.010913009 -0.00315281
0.14700843 0.010893043 -0.0030573041
0.15389831 0.010898098 -0.0030739338
0.1578587 0.010879543 -0.0037818253
0.16082831 0.010898855 -0.0030907721
0.16779378 0.010903884 -0.0031076104
0.16966178 0.010846241 -0.0032898411
0.17478898 0.010874661 -0.0031408491
0.17683391 0.010128394 -0.0031663675
-0.17768288 0.011485739 -0.0034238137
-0.17574352 0.011576176 -0.0038633868
-0.1730538 0.01167478 -0.0038450919
-0.17260119 0.011680007 -0.0033038883
-0.17193756 0.011485739 -0.0034238137
-0.17044944 0.011465013 -0.0038512945
-0.16633376 0.011590411 -0.0033945388
-0.16451347 0.011568349 -0.0035594716
-0.16377059 0.011445848 -0.0035022888
-0.16044697 0.011485739 -0.0034238137
-0.15907332 0.011464953 -0.0038512945
-0.15644404 0.011702562 -0.0032452899
-0.15470165 0.011485739 -0.0034238137
-0.15338525 0.011465013 -0.0038512945
-0.15038179 0.011558596 -0.0032454841
-0.14895636 0.011485739 -0.0034238137
-0.14775687 0.011623278 -0.0035970537
-0.1443643 0.011322185 -0.0035815537
-0.14321104 0.011485739 -0.0034238137
-0.14200914 0.011465073 -0.0038513541
-0.13982135 0.011643555 -0.0031614034
-0.13755316 0.011632384 -0.0032261396
-0.1363211 0.011465073 -0.0038513541
-0.13226166 0.011341654 -0.0037866812
-0.13178699 0.011560707 -0.0032752636
-0.13063303 0.011465013 -0.0038512945
-0.12880507 0.011912014 -0.0030574948
-0.12796156 0.011901304 -0.0037909374
-0.12597516 0.011485739 -0.0034238137
-0.12494493 0.011465013 -0.0038512945
-0.12393074 0.011578603 -0.0033718753
-0.12024094 0.011706858 -0.0034679472
-0.11936425 0.011691025 -0.0036488157
-0.11618385 0.011616495 -0.0030585853
-0.11448461 0.011485739 -0.0034237541
-0.11356884 0.011465013 -0.0038512945
-0.11205225 0.011361364 -0.0034347009
-0.11155665 0.011944324 -0.0039740857
-0.11083989 0.011930587 -0.0030943956
-0.10860769 0.011547319 -0.0032244506
-0.10788077 0.011465013 -0.0038512945
-0.10259335 0.011475376 -0.0036375541
-0.10104556 0.011845957 -0.0032749642
-0.097347945 0.011495823 -0.0035529379
-0.096504599 0.011465073 -0.0038513541
-0.091358267 0.011411508 -0.0033095945
-0.090816587 0.011465013 -0.0038512945
-0.085443273 0.011475376 -0.0036375541
-0.080012798 0.011485739 -0.0034237541
-0.07939446 0.011676519 -0.0038317125
-0.074267536 0.011485739 -0.0034238137
-0.073752403 0.011465013 -0.0038512945
-0.072665744 0.011481836 -0.0030952394
-0.070034467 0.01139112 -0.0039787861
-0.068293288 0.011475435 -0.0036375839
-0.067436732 0.01191519 -0.0039684353
-0.062576607 0.011475406 -0.0036375541
-0.057031602 0.011485739 -0.0034238137
-0.056688219 0.011465013 -0.0038512945
-0.051143259 0.011475406 -0.0036375839
-0.045426548 0.011475376 -0.0036375243
-0.044063389 0.011960538 -0.0037311874
-0.039709881 0.011475406 -0.0036375839
-0.034164108 0.011453741 -0.0033465165
-0.033895135 0.011446767 -0.0038035251
-0.028276563 0.011475376 -0.0036375541
-0.025009461 0.01199599 -0.003309563
-0.022559851 0.011475406 -0.0036375243
-0.020113068 0.011993092 -0.0033089321
-0.016843185 0.011475406 -0.0036375243
-0.011185768 0.011456495 -0.0037086057
-0.010897949 0.01143948 -0.0033083381
-0.005409807 0.011475406 -0.0036375243
-0.0010563144 0.011960598 -0.0037311725
0.00030685961 0.011475376 -0.0036375243
0.0058804452 0.011465013 -0.0038512945
0.0061666071 0.011485739 -0.0034237541
0.011740223 0.011475376 -0.0036375541
0.017456889 0.011475376 -0.0036375243
0.022630818 0.011690072 -0.0039098798
0.023402512 0.011485739 -0.0034237541
0.024914751 0.01139112 -0.003978827
0.0275461 0.011481717 -0.0030951947
0.028632671 0.011465013 -0.0038512945
0.029147863 0.011485739 -0.0034238137
0.034480862 0.011612886 -0.0036957208
0.040323585 0.011475406 -0.0036375541
0.045696855 0.011465013 -0.0038512945
0.046238553 0.011411508 -0.003309628
0.051384985 0.011465013 -0.0038512945
0.052229457 0.011494009 -0.0035524424
0.055925786 0.011845898 -0.0032749791
0.057473645 0.011475406 -0.0036375541
0.062761098 0.011465013 -0.0038512945
0.06349086 0.011543644 -0.0032244655
0.065721855 0.011933081 -0.003096031
0.066685647 0.011654081 -0.0037035798
0.06844911 0.011465073 -0.0038513541
0.069364935 0.011485739 -0.0034237541
0.071067043 0.01161278 -0.0030586449
0.074244499 0.011691025 -0.0036488008
0.075122155 0.011708193 -0.0034670634
0.078812517 0.011576731 -0.0033718753
0.079825222 0.011465073 -0.0038513541
0.080855489 0.011485739 -0.0034238137
0.082841799 0.011901245 -0.0037909374
0.08368706 0.011914589 -0.0030558445
0.085513294 0.011465013 -0.0038512945
0.086670339 0.011557017 -0.0032752487
0.087141946 0.011341535 -0.0037867073
0.091201365 0.011465013 -0.0038512945
0.092432447 0.011631063 -0.003226452
0.094704665 0.011639919 -0.0031613735
0.096889466 0.011465013 -0.0038512945
0.098091364 0.011485739 -0.0034238137
0.099244609 0.011322245 -0.0035816096
0.10263819 0.011621975 -0.0035970239
0.10383675 0.011485739 -0.0034237541
0.10526207 0.011558715 -0.003245458
0.10826558 0.011465013 -0.0038512945
0.10958201 0.011485739 -0.0034238137
0.11091107 0.011655837 -0.0032318262
0.11174241 0.011739075 -0.0032593841
0.11395362 0.011465013 -0.0038512945
0.1153273 0.011485739 -0.0034238137
0.11865024 0.011442741 -0.0035028681
0.11939541 0.011566419 -0.0035594567
0.12121496 0.01158914 -0.0033941849
0.12532973 0.011465013 -0.0038512945
0.12681785 0.011485739 -0.0034237541
0.12748486 0.011676118 -0.0033038883
0.13039312 0.011637086 -0.0036730343
0.13101774 0.011465013 -0.0038512945
0.13256317 0.011485739 -0.0034238137
0.13591304 0.011688299 -0.0033405451
0.13670585 0.011465073 -0.0038513541
0.13763225 0.011298604 -0.0031735115
0.13830844 0.011485739 -0.0034238137
0.14235157 0.011514744 -0.0038213823
0.14424801 0.011591273 -0.0034006867
0.14783213 0.011666752 -0.0036923718
0.14837411 0.011369616 -0.0037860777
0.14979905 0.011485739 -0.0034237541
0.15030387 0.011795226 -0.003623303
0.15356821 0.011574392 -0.0036622556
0.15575953 0.011383112 -0.0034680441
0.15769759 0.01178135 -0.0031990744
0.15945801 0.011465013 -0.0038512945
0.16162893 0.011613339 -0.0035202114
0.16297634 0.011993362 -0.003945847
0.16358826 0.011758707 -0.0030907206
0.16479413 0.011633798 -0.0038955733
0.16521813 0.011504643 -0.003749717
0.16663562 0.011259846 -0.0032215044
0.16703492 0.011485739 -0.0034237541
0.16868886 0.011930034 -0.0032704789
0.17072695 0.011645707 -0.0035841486
0.17315227 0.011457458 -0.0033129214
0.17590374 0.01134425 -0.0030920724
0.17652228 0.011465013 -0.0038512945
-0.17458138 0.012919508 -0.0038646767
-0.1724443 0.01291398 -0.0037405819
-0.17100787 0.012474122 -0.0039880546
-0.17032434 0.012341576 -0.0036679623
-0.16729113 0.01223575 -0.0034304019
-0.16103031 0.012949094 -0.0035067461
-0.15867206 0.01209314 -0.0036987546
-0.15750179 0.012391875 -0.0037099663
-0.15683043 0.012793158 -0.0037736236
-0.15505196 0.012272207 -0.0039601009
-0.15390001 0.012270285 -0.0036725542
-0.15225336 0.012867413 -0.0038719093
-0.15075187 0.012678852 -0.003438497
-0.14980565 0.012373968 -0.0032200916
-0.1488921 0.012473057 -0.0035438824
-0.14319009 0.012255613 -0.0037984406
-0.14176689 0.012660405 -0.0037298123
-0.14008857 0.012305876 -0.0039224117
-0.13978946 0.012228016 -0.0039865049
-0.13840695 0.012500974 -0.0035271533
-0.1379575 0.012146592 -0.0038635684
-0.13682732 0.012507398 -0.0036255494
-0.13295192 0.01217876 -0.0039046137
-0.13182354 0.012031255 -0.0038667936
-0.12772292 0.012146831 -0.0035115313
-0.12675682 0.012533573 -0.0035931063
-0.1229168 0.012396081 -0.003043093
-0.11926258 0.012059689 -0.0039576422
-0.11605994 0.012125164 -0.0036495738
-0.11534062 0.012202304 -0.0031544296
-0.11452745 0.012269251 -0.0032273401
-0.11266881 0.012732111 -0.0033174187
-0.10962251 0.012169495 -0.0033495473
-0.10754205 0.012460792 -0.003935853
-0.10481863 0.012671599 -0.003282832
-0.099702723 0.012631983 -0.0038251793
-0.098744541 0.012476263 -0.0034253923
-0.09585765 0.012277159 -0.0036137607
-0.093506843 0.012390365 -0.0036500026
-0.092688024 0.012049373 -0.0038248259
-0.091369636 0.012542963 -0.0030169722
-0.085480079 0.012651719 -0.0031248361
-0.078770503 0.01221942 -0.0032863989
-0.075304329 0.012818774 -0.0035574741
-0.074165046 0.012466378 -0.0033927048
-0.072493643 0.012612235 -0.003032896
-0.067160837 0.012809534 -0.0034241201
-0.06485647 0.012276113 -0.0038227737
-0.057617418 0.012691718 -0.0039350605
-0.054850459 0.012387858 -0.0035506117
-0.053596169 0.012129886 -0.0031905156
-0.052862573 0.012067854 -0.0037821564
-0.051342532 0.012058197 -0.0032206846
-0.048772834 0.012684541 -0.0039969855
-0.047766048 0.012537777 -0.0030255062
-0.04558976 0.012172069 -0.0034645291
-0.044602614 0.012588481 -0.0036106217
-0.042997397 0.012123304 -0.0034890594
-0.040486246 0.012827569 -0.00351298
-0.039202511 0.012531638 -0.0030859916
-0.036149167 0.012447966 -0.0038910224
-0.033025749 0.012091187 -0.0032496247
-0.032664068 0.012093923 -0.003803205
-0.03026348 0.012827621 -0.0031818622
-0.026449796 0.012296948 -0.0030457589
-0.025580462 0.012008214 -0.0034822414
-0.024618533 0.012770507 -0.0030864757
-0.023330655 0.012782037 -0.0037777598
-0.022557426 0.012106724 -0.0038775795
-0.021749815 0.012792191 -0.0037973982
-0.020532534 0.012762268 -0.0030817101
-0.019536383 0.012005282 -0.0034828333
-0.018662879 0.012306436 -0.003056943
-0.014866871 0.012822056 -0.0031431857
-0.01227365 0.012093899 -0.0035254927
-0.008964099 0.012451902 -0.0038884538
-0.0065808343 0.012323231 -0.0039912127
-0.0059173834 0.012531698 -0.0030859637
-0.0046332977 0.012827613 -0.0035128393
-0.002122324 0.012123304 -0.0034890352
-0.00052049523 0.012581424 -0.0036249724
0.00047009869 0.012175869 -0.0034619863
0.0026488868 0.012542933 -0.0030359642
0.0036641506 0.012687577 -0.0039949869
0.0062258122 0.012055341 -0.0032213375
0.007742377 0.012065113 -0.0037793904
0.0084768767 0.012128463 -0.0031920779
0.0097342618 0.012386392 -0.003554164
0.012491194 0.012689902 -0.0039387071
0.019739818 0.012280703 -0.0038171858
0.022041032 0.012809563 -0.0034241332
0.027369833 0.012614362 -0.0030328066
0.028933052 0.012102911 -0.0036915615
0.029533982 0.012733664 -0.003498228
0.030467041 0.012993166 -0.0032374598
0.033656392 0.012228503 -0.003297071
0.040356182 0.012653925 -0.0031248063
0.046248194 0.012537718 -0.0030275346
0.047568083 0.012046727 -0.0038220927
0.048390374 0.012393861 -0.0036521652
0.050742567 0.012272239 -0.0036080671
0.053625233 0.012479152 -0.0034265351
0.054588903 0.01262488 -0.0038107596
0.059691247 0.012680719 -0.0032641999
0.062434617 0.012464516 -0.0039334539
0.064502731 0.012169555 -0.0033495044
0.06753996 0.012736712 -0.0033172399
0.069414183 0.012263276 -0.0032312796
0.070582382 0.012164561 -0.0033978173
0.074142888 0.012062371 -0.0039547253
0.077788346 0.012393388 -0.0030415987
0.081635699 0.012532873 -0.0035950313
0.08260648 0.012153503 -0.003519279
0.086703852 0.012028586 -0.0038640322
0.087834418 0.012183184 -0.0038992409
0.091710337 0.01250485 -0.003628647
0.092840083 0.012148336 -0.0038647102
0.093284734 0.012502735 -0.0035264567
0.094816461 0.012264706 -0.0039577372
0.09664201 0.012661038 -0.0037331521
0.098073751 0.012258194 -0.0037967223
0.10376762 0.012468672 -0.00353186
0.10466915 0.012368446 -0.003231233
0.10563943 0.012671659 -0.0034238081
0.10713837 0.012865104 -0.003873392
0.10877497 0.012265777 -0.0036791116
0.10993224 0.012272237 -0.0039601298
0.11169846 0.01280135 -0.0037640212
0.11239545 0.012389319 -0.0037022703
0.11355373 0.012091615 -0.0036942626
0.11590236 0.012952965 -0.0035010967
0.12216637 0.012231365 -0.0034367926
0.12520507 0.012341034 -0.0036721199
0.12730886 0.012921214 -0.0037403733
0.1285049 0.012085278 -0.0037301462
0.12944679 0.012926452 -0.0038689636
0.13070616 0.012352571 -0.0039672554
0.13343751 0.012042306 -0.0030203685
0.13404952 0.012113253 -0.003259154
0.13515632 0.012197949 -0.0032017408
0.13728088 0.012097647 -0.0034115077
0.14045222 0.012456387 -0.0033612214
0.14215271 0.012017794 -0.0039031645
0.1437076 0.012673683 -0.0036976798
0.15026478 0.012091652 -0.0039769858
0.15195459 0.012025918 -0.0036297939
0.15277335 0.012111273 -0.0030105156
0.15487775 0.012115225 -0.0038355999
0.15732828 0.012280522 -0.0033277413
0.15855061 0.01271827 -0.0030189836
0.16106744 0.012173157 -0.0038015372
0.16203776 0.01235375 -0.0030452013
0.16850972 0.012376666 -0.003787348
0.17152053 0.012200689 -0.0036631115
0.17204018 0.012668601 -0.0036579913
-0.15507951 0.013268281 -0.0031373433
0.10988723 0.013284136 -0.0031465455
0.13950534 0.013013538 -0.0038242973
0.14733291 0.013374757 -0.0039109583
0.16026951 0.013021722 -0.0039737849
-0.17689541 -0.010001779 -0.0026498346
-0.17117932 -0.010001779 -0.0026498346
-0.16546312 -0.010001779 -0.0026498346
-0.15974706 -0.010001779 -0.0026498346
-0.15403095 -0.010001779 -0.0026498346
-0.14831474 -0.010001719 -0.0026498346
-0.14259866 -0.010001719 -0.0026498346
-0.13688251 -0.010001779 -0.0026498346
-0.13116634 -0.010001779 -0.0026498346
-0.12545022 -0.010001779 -0.0026498346
-0.11973405 -0.010001779 -0.0026498346
-0.11401796 -0.010001779 -0.0026498346
-0.10830185 -0.010001779 -0.0026498346
-0.10258567 -0.010001779 -0.0026498346
-0.096869588 -0.010001719 -0.0026498346
-0.091153383 -0.010001779 -0.0026498346
-0.085437238 -0.010001779 -0.0026498346
-0.079721123 -0.010001779 -0.0026498346
-0.074005008 -0.010001779 -0.0026498346
-0.068288893 -0.010001779 -0.0026498346
-0.062572747 -0.010001779 -0.0026498346
-0.056856602 -0.010001779 -0.0026498346
-0.051140517 -0.010001779 -0.0026498346
-0.045424372 -0.010001779 -0.0026498346
-0.039708227 -0.010001779 -0.0026498346
-0.033992112 -0.010001779 -0.0026498346
-0.028275967 -0.010001779 -0.0026498346
-0.022559881 -0.010001779 -0.0026498346
-0.016843736 -0.010001779 -0.0026498346
-0.011127591 -0.010001779 -0.0026498346
-0.0054114461 -0.010001779 -0.0026498346
0.00030472875 -0.010001779 -0.0026498346
0.0060208142 -0.010001779 -0.0026498346
0.011736959 -0.010001779 -0.0026498346
0.017453074 -0.010001779 -0.0026498346
0.023169219 -0.010001719 -0.0026498346
0.028885335 -0.010001779 -0.0026498346
0.03460148 -0.010001779 -0.0026498346
0.040317625 -0.010001779 -0.0026498346
0.04603374 -0.010001779 -0.0026498346
0.051749825 -0.010001779 -0.0026498346
0.05746603 -0.010001779 -0.0026498346
0.063182175 -0.010001719 -0.0026498346
0.06889829 -0.010001779 -0.0026498346
0.074614406 -0.010001779 -0.0026498346
0.08033058 -0.010001779 -0.0026498346
0.086046696 -0.010001779 -0.0026498346
0.091762811 -0.010001779 -0.0026498346
0.097478926 -0.010001779 -0.0026498346
0.10319507 -0.010001779 -0.0026498346
0.10891122 -0.010001779 -0.0026498346
0.1146273 -0.010001719 -0.0026498346
0.12034345 -0.010001719 -0.0026498346
0.12605965 -0.010001779 -0.0026498346
0.13177574 -0.010001779 -0.0026498346
0.13749188 -0.010001779 -0.0026498346
0.143208 -0.010001779 -0.0026498346
0.14892414 -0.010001779 -0.0026498346
0.15464029 -0.010001779 -0.0026498346
0.16035637 -0.010001779 -0.0026498346
0.16607252 -0.010001779 -0.0026498346
0.17178866 -0.010001779 -0.0026498346
-0.17651811 -0.0092160814 -0.0022865862
-0.17156303 -0.009180665 -0.0021817791
-0.16936815 -0.0090858992 -0.0029820912
-0.16598935 -0.0092131309 -0.0023121566
-0.16068706 -0.0092098638 -0.0023250014
-0.15943584 -0.0091315107 -0.0027495525
-0.1553597 -0.0092102811 -0.002337876
-0.15244396 -0.009121649 -0.0029751689
-0.15000632 -0.0092069246 -0.0023509294
-0.14754613 -0.0091423262 -0.0029534549
-0.14578685 -0.009125568 -0.0029590458
-0.14462718 -0.0092036352 -0.002363953
-0.13919488 -0.0091646556 -0.0026600391
-0.13379115 -0.0092006251 -0.0023902387
-0.13258094 -0.0091292337 -0.0029269785
-0.12833343 -0.00919725 -0.0024035305
-0.12603143 -0.0091290995 -0.0029110939
-0.12284972 -0.0091976486 -0.0024168224
-0.11951468 -0.0091329236 -0.0028952986
-0.11733869 -0.0091941655 -0.002430144
-0.1131381 -0.0091177244 -0.0028027478
-0.11180134 -0.0091944877 -0.0024435848
-0.11006839 -0.0091302106 -0.0026078485
-0.10640559 -0.0091423253 -0.0025299843
-0.10040759 -0.0091639971 -0.0026594878
-0.099862203 -0.0091022244 -0.0022588354
-0.097552806 -0.0091269761 -0.0021849088
-0.095024392 -0.0091880057 -0.0024843246
-0.093792357 -0.0091401916 -0.0028329224
-0.092995092 -0.0091026509 -0.0027068388
-0.090519257 -0.0091302106 -0.0024270397
-0.089376606 -0.0091845077 -0.0024980039
-0.087444916 -0.0091438573 -0.0028175444
-0.083701655 -0.009184815 -0.0025117428
-0.08113052 -0.0091476534 -0.0028021664
-0.077974848 -0.0091560902 -0.0027031819
-0.074850485 -0.0091473721 -0.002786997
-0.072265387 -0.0091778198 -0.0025394887
-0.068601437 -0.0091510871 -0.0027717978
-0.066505402 -0.0091781337 -0.0025534958
-0.062386133 -0.0091509195 -0.0027567178
-0.060715672 -0.0091746319 -0.0025675327
-0.056201424 -0.0091545694 -0.0027416677
-0.054896951 -0.009171145 -0.0025816292
-0.050048485 -0.0091582974 -0.0027267963
-0.049049981 -0.0091714095 -0.0025957853
-0.043550532 -0.009162955 -0.0026610375
-0.039020572 -0.0091150431 -0.0028046416
-0.03892884 -0.0091145039 -0.002871871
-0.037552472 -0.0091649275 -0.0026607544
-0.032081883 -0.0091156447 -0.0020090081
-0.031555101 -0.0091629103 -0.0026606799
-0.026037015 -0.0091166813 -0.002393215
-0.025557432 -0.0091629717 -0.0026605905
-0.019321611 -0.0091408128 -0.0025268842
-0.013387983 -0.0091458606 -0.0024438519
-0.0075660516 -0.0091648623 -0.0026607991
-0.0061447504 -0.0091166813 -0.0028376901
-0.0015680054 -0.0091629298 -0.0026610226
0.0039312858 -0.0091752037 -0.0025957853
0.0049315281 -0.0091504706 -0.0027267963
0.0097791981 -0.0091787511 -0.0025816292
0.011083081 -0.0091507565 -0.0027416975
0.015596949 -0.0091784438 -0.0025675625
0.017267883 -0.0091469372 -0.0027567775
0.021386616 -0.0091820145 -0.002553466
0.023484685 -0.0091433246 -0.0027718276
0.027146574 -0.0091815898 -0.0025395185
0.029732279 -0.0091435313 -0.0027869672
0.032855541 -0.0091579501 -0.0027031819
0.036013968 -0.0091396961 -0.0028022558
0.038582779 -0.0091886055 -0.0025117726
0.042326808 -0.0091399178 -0.0028174848
0.044257671 -0.0091883056 -0.0024980039
0.045399539 -0.0091302702 -0.0024270546
0.047876522 -0.0090987319 -0.0027079508
0.048674345 -0.0091361441 -0.0028329224
0.049905427 -0.0091917533 -0.0024842948
0.052433282 -0.0091307815 -0.0021837763
0.05474253 -0.0091022244 -0.0022588503
0.055289961 -0.0091618402 -0.0026595176
0.061287075 -0.0091408752 -0.0025303855
0.06494879 -0.0091340253 -0.0026067421
0.066682264 -0.0091982614 -0.0024435252
0.067916214 -0.0091287531 -0.0028796524
0.06812422 -0.0090987319 -0.0027259924
0.072219588 -0.0091978889 -0.0024301738
0.074396789 -0.0091289245 -0.0028952986
0.077730589 -0.0092012584 -0.0024167926
0.080913574 -0.0091251079 -0.0029111237
0.083214246 -0.0092008691 -0.0024034709
0.087465093 -0.009121161 -0.0029270381
0.088671945 -0.0092042498 -0.0023902089
0.09407641 -0.00916446 -0.0026600391
0.099507898 -0.0092072189 -0.0023639232
0.10067122 -0.0091174245 -0.0029590756
0.10242641 -0.0091423262 -0.0029534698
0.10488705 -0.0092105716 -0.0023508996
0.10732839 -0.0091134682 -0.0029752881
0.11023997 -0.0092101619 -0.0023379356
0.11431715 -0.0091295475 -0.0027495748
0.11556769 -0.0092134736 -0.0023249418
0.12086965 -0.0092131309 -0.002312097
0.12424849 -0.0090858992 -0.0029820614
0.12644358 -0.009180598 -0.0021812688
0.1312083 -0.009152553 -0.0022282875
0.1338577 -0.0091454703 -0.0023521259
0.13662544 -0.0092191733 -0.00227395
0.13808756 -0.0090824347 -0.0025376305
0.14182782 -0.0092224404 -0.0022612542
0.14483728 -0.0090818722 -0.0026446655
0.1459327 -0.0091485828 -0.0027669109
0.14700541 -0.0092220716 -0.0022487075
0.15208167 -0.0091520725 -0.0021634786
0.1572881 -0.0092284642 -0.0022237331
0.16239321 -0.0092281699 -0.0022113652
0.16747455 -0.0092313066 -0.0021991164
0.17253214 -0.0092308261 -0.0021867782
-0.17516235 -0.0084278714 -0.0026032003
-0.17134455 -0.0085906833 -0.0020492985
-0.16877401 -0.0084221289 -0.0026528463
-0.16614521 -0.0086551383 -0.0020463197
-0.16547322 -0.0085220933 -0.0020756125
-0.16421454 -0.0083478317 -0.0023466083
-0.16267841 -0.0084412089 -0.0021872271
-0.16054089 -0.0084556434 -0.0022845175
-0.15975669 -0.0085220337 -0.0020756125
-0.15841955 -0.0081472434 -0.0027698167
-0.15528584 -0.0086406358 -0.0020937352
-0.15404022 -0.0085220933 -0.0020756125
-0.15246518 -0.0084147304 -0.0021342859
-0.15037616 -0.0081327073 -0.0024253055
-0.14978157 -0.0086363964 -0.0021177856
-0.14832366 -0.0085220933 -0.0020756125
-0.14727087 -0.0082234461 -0.0020160452
-0.14422449 -0.0086288862 -0.0021419851
-0.14352679 -0.0086702444 -0.0028559603
-0.14240441 -0.0083187316 -0.0020746076
-0.14145297 -0.0083351843 -0.0021534017
-0.14044549 -0.0084055308 -0.0021285899
-0.13861659 -0.0086246692 -0.002166423
-0.13689056 -0.0085220933 -0.0020756125
-0.13579905 -0.0084453076 -0.0026308559
-0.1326471 -0.0084259761 -0.0021071224
-0.131174 -0.0085220933 -0.0020756125
-0.1282873 -0.00839624 -0.0021228306
-0.12723838 -0.0086094849 -0.0022161333
-0.1254575 -0.0085220337 -0.0020756125
-0.1237874 -0.0086458772 -0.0028976109
-0.12146935 -0.0086049587 -0.0022412566
-0.11974102 -0.0085220933 -0.0020756125
-0.1189712 -0.0081798695 -0.0020294832
-0.11759694 -0.008246148 -0.0020300504
-0.11581597 -0.0084920553 -0.0021918812
-0.11402446 -0.0085220337 -0.0020756125
-0.11096549 -0.0086410195 -0.0021540225
-0.1097618 -0.008589372 -0.0022923378
-0.1083079 -0.0085220933 -0.0020756125
-0.10566021 -0.0080350004 -0.0022679856
-0.10342088 -0.0084619271 -0.0022490819
-0.10259137 -0.0085220933 -0.0020756125
-0.099401683 -0.0084870383 -0.0028564204
-0.098010972 -0.0081378594 -0.0025301133
-0.097828276 -0.008576788 -0.0023444323
-0.096784569 -0.008270354 -0.0024015037
-0.095701605 -0.0084127001 -0.002992007
-0.091465794 -0.008545395 -0.0022232248
-0.090567656 -0.008493986 -0.0023915591
-0.088425055 -0.0083453134 -0.0025014444
-0.085551202 -0.008543022 -0.0022365614
-0.082183488 -0.0086073447 -0.0021531954
-0.080758154 -0.008428568 -0.0029267399
-0.079605572 -0.0085389335 -0.0022500469
-0.078221194 -0.0083578601 -0.0020991508
-0.074312776 -0.00843646 -0.0021350186
-0.073327549 -0.0084928768 -0.0026731817
-0.068292171 -0.0085220933 -0.0020756125
-0.066542119 -0.0084951194 -0.002671021
-0.065333582 -0.0083480757 -0.0020930823
-0.062575608 -0.0085220933 -0.0020756125
-0.060515635 -0.0084118806 -0.0022819494
-0.058935307 -0.0084534716 -0.0028315512
-0.056859076 -0.0085220933 -0.0020756125
-0.054169551 -0.0085289637 -0.0025348691
-0.052292205 -0.0083381552 -0.0020869318
-0.051478043 -0.0084924418 -0.00243804
-0.047834568 -0.0082800016 -0.0027183262
-0.046585616 -0.0083002523 -0.0020635184
-0.045426011 -0.0085220933 -0.0020756125
-0.044720881 -0.0085021891 -0.0025741172
-0.041123532 -0.0085117612 -0.0025918512
-0.039401881 -0.0084250839 -0.0020781609
-0.037795 -0.0084777186 -0.0027393727
-0.034502611 -0.0085064564 -0.0026207296
-0.033992946 -0.0085220933 -0.0020756125
-0.032809269 -0.0084386077 -0.0022780625
-0.030893754 -0.0084867477 -0.0027091829
-0.028276384 -0.0085220933 -0.0020756125
-0.027811646 -0.0084975958 -0.0026498763
-0.025736988 -0.0083177686 -0.0020743608
-0.024063684 -0.0084956624 -0.0026793806
-0.023853816 -0.0085523613 -0.0027733196
-0.022559851 -0.0085220933 -0.0020756125
-0.021157825 -0.0085222628 -0.0027258813
-0.019381493 -0.0083210468 -0.0020763576
-0.017305911 -0.0085010529 -0.0026499359
-0.016843349 -0.0085220933 -0.0020756125
-0.014223686 -0.0084832078 -0.0027092127
-0.012309777 -0.0084369183 -0.0022770718
-0.011126757 -0.0085220933 -0.0020756125
-0.010614974 -0.0085099312 -0.0026207296
-0.0073223514 -0.008474078 -0.0027393429
-0.0060243122 -0.0083312532 -0.0020826706
-0.0054102838 -0.0085220337 -0.0020756125
-0.0039921114 -0.0085186856 -0.0025918214
-0.00039655529 -0.008498745 -0.002574173
0.00030627847 -0.0085220933 -0.0020756125
0.0014673485 -0.0082969554 -0.0020615384
0.0027145613 -0.0082802717 -0.0027186777
0.0063595176 -0.0084906714 -0.0024380549
0.007172476 -0.0083381552 -0.002086902
0.0090517644 -0.0085323686 -0.0025348691
0.011739373 -0.0085220933 -0.0020756125
0.013818052 -0.0084498879 -0.0028316109
0.015397581 -0.0084119244 -0.0022809254
0.017455816 -0.0085220933 -0.0020756125
0.020213857 -0.0083481353 -0.0020930991
0.021424588 -0.0084949378 -0.0026710359
0.023172438 -0.0085220337 -0.0020756125
0.028436964 -0.0085035777 -0.002473972
0.029345835 -0.0083919866 -0.0021636533
0.033101466 -0.0083579794 -0.0020991955
0.034486689 -0.0085405782 -0.0022500171
0.035641067 -0.0084249303 -0.0029267995
0.037065163 -0.0086105559 -0.0021522213
0.040432304 -0.0085446732 -0.0022365465
0.043307535 -0.0083417669 -0.0025004051
0.045447238 -0.0084922761 -0.0023911102
0.046347767 -0.0085487152 -0.0022232099
0.050584644 -0.0084089823 -0.0029919771
0.051664837 -0.0082703838 -0.0024015279
0.052801795 -0.0083603337 -0.0024375352
0.054281954 -0.0084870383 -0.0028563533
0.057696275 -0.008387927 -0.0020552082
0.058429051 -0.0085312426 -0.0023198137
0.06053865 -0.0080324635 -0.002269689
0.063188165 -0.0085220933 -0.0020756125
0.064645201 -0.0085959136 -0.0022923378
0.065844566 -0.0086377971 -0.0021531675
0.068904698 -0.0085220933 -0.0020756125
0.07069698 -0.0084936498 -0.0021918439
0.072479144 -0.0082427207 -0.002027981
0.073853508 -0.0081824288 -0.0020300103
0.07462129 -0.0085220933 -0.0020756125
0.076351129 -0.0086082257 -0.0022412566
0.078668766 -0.0086489953 -0.0028966367
0.080337763 -0.0085220933 -0.0020756125
0.082121529 -0.00861587 -0.0022160737
0.08316759 -0.0083962996 -0.0021228939
0.086054325 -0.0085220933 -0.0020756125
0.087529033 -0.0084258365 -0.0021060663
0.090679385 -0.0084453076 -0.0026308857
0.091770858 -0.0085220337 -0.0020756125
0.093498223 -0.008627791 -0.002166423
0.095325693 -0.0084055308 -0.0021285936
0.09633141 -0.0083325524 -0.0021539633
0.097286232 -0.0083212052 -0.0020762058
0.098406032 -0.0086669587 -0.0028551184
0.099107459 -0.0086352862 -0.0021419255
0.10215109 -0.0082234461 -0.0020160414
0.10320395 -0.0085219741 -0.0020755529
0.10466316 -0.0086396076 -0.002117726
0.10525791 -0.0081351697 -0.0024268981
0.10734548 -0.00841479 -0.0021343157
0.10892045 -0.0085220933 -0.0020756125
0.11016861 -0.008646898 -0.0020937053
0.11330132 -0.008149717 -0.0027713813
0.11463699 -0.0085220933 -0.0020756125
0.11542007 -0.0084547363 -0.0022850619
0.11755806 -0.0084391749 -0.0021866548
0.1189605 -0.0082716867 -0.002553246
0.11922865 -0.0084208027 -0.0021380372
0.12035355 -0.0085220933 -0.0020756125
0.12102668 -0.0086582638 -0.0020463495
0.12365431 -0.0084221289 -0.0026528314
0.12622601 -0.0085937902 -0.0020492836
0.12989935 -0.0086971298 -0.0023103021
0.13058196 -0.0082945041 -0.0025201822
0.13178658 -0.0085220933 -0.0020756125
0.13259251 -0.0082002319 -0.0020016506
0.13356745 -0.0082952455 -0.0027367137
0.1374945 -0.0083568236 -0.0024063727
0.14259689 -0.0084386319 -0.0021490455
0.14321968 -0.0085220933 -0.0020756125
0.14551301 -0.008187294 -0.0020464808
0.1478866 -0.0080061853 -0.0028414279
0.14871877 -0.0086173993 -0.0023694132
0.14910738 -0.0084327981 -0.0029259399
0.15116578 -0.0083282068 -0.0029642005
0.15436932 -0.0084847994 -0.0021150652
0.16049659 -0.0084803626 -0.0024676472
0.16544768 -0.008456219 -0.0021598935
0.16610479 -0.0086254738 -0.0023015738
0.17180231 -0.0085220933 -0.0020756125
0.17201263 -0.0084475055 -0.0027921833
0.17650655 -0.0084263943 -0.0023692651
0.17751887 -0.0085220933 -0.0020756125
-0.17629358 -0.0074396469 -0.0021263175
-0.17168051 -0.007656435 -0.0024658488
-0.17026117 -0.0079497416 -0.0023366306
-0.1699997 -0.0078132302 -0.0022392776
-0.16882072 -0.0078161219 -0.00238362
