# .PCD v0.7 - Point Cloud Data file format
VERSION 0.7
FIELDS x y z
SIZE 4 4 4
TYPE F F F
COUNT 1 1 1
WIDTH 1268
HEIGHT 1
VIEWPOINT 0 0 0 1 0 0 0
POINTS 1268
DATA ascii
0.0054899566 -0.02338998 0.015565436
0.0066900281 -0.023224235 0.015540256
0.0078077824 -0.023839943 0.015558388
0.00863396 -0.023485856 0.015315888
0.0098538697 -0.023632314 0.015510131
0.010399119 -0.023547443 0.01563151
-0.011259897 -0.02293488 0.015429218
-0.0097970599 -0.022112263 0.01571011
-0.0084912926 -0.022523258 0.01589635
-0.0052663973 -0.022104271 0.015432686
-0.0041676606 -0.022459498 0.015675277
-0.0038476461 -0.022348054 0.015334389
-0.0011768388 -0.022169042 0.015609602
-0.00024099927 -0.022839108 0.015366931
0.0029756548 -0.022684235 0.015061971
0.0033539683 -0.022487666 0.015287774
0.0049969582 -0.022866407 0.01517039
0.0064398614 -0.022520438 0.015209877
0.0078271413 -0.022687849 0.015169544
0.0081168469 -0.022382898 0.015839316
0.0095145376 -0.022355452 0.015706817
0.010597142 -0.022468733 0.015472336
0.011160381 -0.022710934 0.015585864
-0.011655591 -0.021471143 0.015036567
-0.010388418 -0.021641066 0.015211165
-0.0094003798 -0.021746572 0.015001416
-0.0086919703 -0.021104511 0.015680643
-0.0073614377 -0.02125179 0.015206771
-0.0066982172 -0.021663068 0.015359175
-0.0056447922 -0.021768501 0.015213665
-0.0040658982 -0.021536013 0.015862688
-0.0036051187 -0.021817459 0.015352651
-0.0028931312 -0.021458037 0.015684366
-2.0124018e-05 -0.021778017 0.015701411
0.00066908001 -0.021524044 0.01532541
0.0015088476 -0.02168259 0.015612137
0.0022955243 -0.021135047 0.015739102
0.0031727708 -0.021668918 0.015697431
0.0044639483 -0.021526404 0.015637267
0.005053699 -0.021333773 0.015737699
0.0064516007 -0.021484524 0.015332904
0.0077983271 -0.021531189 0.015735626
0.0088450871 -0.021041567 0.015988465
0.0092943218 -0.021353465 0.015811184
0.010915237 -0.021021476 0.015325862
-0.0092418892 -0.020436093 0.015466422
-0.0089969495 -0.020724729 0.015567199
-0.0064307591 -0.02056114 0.015455447
-0.0059571858 -0.020268913 0.015923878
-0.004620336 -0.020926107 0.015207697
-0.0035729893 -0.02054623 0.015518411
-0.0014520419 -0.020426845 0.015431705
-0.00051337259 -0.020696651 0.015427836
0.00043906915 -0.020559115 0.015577476
0.0014096081 -0.020340936 0.01554333
0.0021526646 -0.020241041 0.015169282
0.0043135621 -0.020247085 0.015525846
0.0068195658 -0.020447368 0.015534656
0.0086390162 -0.020279307 0.015305123
0.009853703 -0.020671736 0.015476599
0.010370683 -0.020401495 0.015605816
-0.0094322516 -0.019162761 0.015466787
-0.0085708937 -0.019605286 0.015669748
-0.0072509884 -0.019843007 0.015057933
-0.0065730736 -0.019303052 0.015440088
-0.0040970528 -0.019172566 0.015671661
-0.003687137 -0.019105589 0.015439146
-0.0025241277 -0.019550512 0.015214748
-0.0001217653 -0.019447237 0.015533679
0.0034966506 -0.01954603 0.015263003
0.0064841369 -0.019606508 0.015211081
0.0078121424 -0.019459084 0.015542857
0.0081218323 -0.01960659 0.015839394
0.0095768319 -0.019623503 0.01591227
0.010731111 -0.019499121 0.015377857
0.011162743 -0.019772083 0.01562576
-0.010185455 -0.01880319 0.015287338
-0.0091706729 -0.018058661 0.015369104
-0.0089286249 -0.018806938 0.01558077
-0.0073727425 -0.018357977 0.015207877
-0.0065220995 -0.018152853 0.015466694
-0.0043334039 -0.018356213 0.015535105
-0.0036638423 -0.018424099 0.015399851
-0.0011574947 -0.018640129 0.015614633
-0.00048276747 -0.018133372 0.015742658
8.4965955e-05 -0.01806049 0.015853908
0.0013327707 -0.018458858 0.015593374
0.002529694 -0.018554093 0.015514717
0.0031727708 -0.018960303 0.015697431
0.0047540353 -0.018634705 0.015658813
0.0050615948 -0.018546648 0.015740056
0.0062203291 -0.018697947 0.015540731
0.0078221811 -0.018481264 0.015559542
0.0092923781 -0.018805625 0.015960962
0.01068989 -0.018575262 0.015610237
-0.010659819 -0.017640553 0.01505679
-0.0092404755 -0.017435079 0.015545634
-0.0085556554 -0.017598368 0.01568106
-0.0065299291 -0.017605122 0.015420343
-0.0058001373 -0.017327953 0.015571864
-0.0036208213 -0.017573562 0.015510814
-0.0021654777 -0.017114857 0.015440637
-0.0014484734 -0.017519245 0.015433657
-0.0006972613 -0.017609516 0.015169843
0.00065735751 -0.017309271 0.015363768
0.0014196067 -0.017435079 0.015545634
0.0021526797 -0.017443104 0.015169132
0.0037201021 -0.017010225 0.015211448
0.0043134466 -0.017446006 0.01554444
0.0067092027 -0.017408468 0.015341925
0.0074063875 -0.017123275 0.015393894
0.0087468727 -0.017391138 0.015620128
0.0096485522 -0.017709229 0.01544366
0.010370563 -0.017452747 0.015579656
0.011219057 -0.017110212 0.015593568
-0.011674759 -0.016985055 0.015010278
-0.0094802566 -0.01649002 0.015441666
-0.0082281018 -0.016461937 0.015867669
-0.0071632056 -0.016127512 0.015058665
-0.0065802583 -0.016294014 0.015441748
-0.0036051187 -0.016363095 0.015352651
-0.00019459047 -0.016666235 0.015375535
0.0032766529 -0.01644635 0.015576892
0.0040132226 -0.01622634 0.015442402
0.0064313468 -0.016419807 0.015452931
0.007827498 -0.016122025 0.01592017
0.0081256572 -0.016837701 0.015838254
0.0093902834 -0.016559245 0.015803751
0.010731111 -0.016713532 0.015377857
0.011111204 -0.016527303 0.015738554
-0.010173598 -0.01583745 0.015287512
-0.009170386 -0.015285237 0.015369315
-0.0087142913 -0.015051175 0.015216796
-0.0073841559 -0.015440974 0.015209203
-0.0064817816 -0.015237519 0.015368007
-0.0042243511 -0.015619807 0.015579802
-0.0036033345 -0.015507003 0.01559113
-0.0024542632 -0.015025139 0.015217754
-0.0011378205 -0.015057005 0.01561971
-0.00048946147 -0.015316031 0.015744966
9.9223806e-05 -0.015247125 0.01585285
0.0022968315 -0.015530663 0.015743729
0.0030175594 -0.015325725 0.015060786
0.0047870623 -0.015436416 0.015656471
0.005069267 -0.015744112 0.015741557
0.0063126581 -0.015518758 0.015361175
0.0078298645 -0.015791919 0.015561891
0.010689206 -0.015529681 0.015581592
-0.0092706354 -0.01450691 0.01554793
-0.0086896727 -0.014369237 0.015727708
-0.0064045512 -0.014472819 0.015675418
-0.0036472285 -0.014639015 0.015455994
-0.0024937037 -0.014603304 0.015672386
-0.0014448422 -0.014588878 0.015435561
-0.00069362961 -0.014811926 0.015169904
0.00069671759 -0.014237641 0.015436118
0.0014202973 -0.014532511 0.015570665
0.0021526378 -0.014652409 0.015169102
0.0038184698 -0.014527554 0.015215216
0.0043348866 -0.014438925 0.015546104
0.0065490552 -0.014534867 0.015552423
0.0078051444 -0.014335249 0.015169284
0.0084926896 -0.014216183 0.015870666
0.0098550413 -0.014791887 0.0154097
0.010370594 -0.014653049 0.015628727
0.011219057 -0.01425851 0.015593568
-0.01134987 -0.013777789 0.015441596
-0.010550952 -0.013938514 0.015056194
-0.0095987199 -0.013705886 0.015355763
-0.0082026906 -0.013602632 0.015866442
-0.0065933 -0.013670701 0.015354636
-0.0040068505 -0.013016556 0.015858918
-0.0036051187 -0.013635911 0.015352651
-0.00017447739 -0.013554635 0.015375454
0.0031262131 -0.013388569 0.015529759
0.0050569549 -0.013003814 0.015562353
0.0064179427 -0.013681906 0.015322373
0.0075903744 -0.013269582 0.015703393
0.0086503169 -0.013944134 0.015284829
0.0094302092 -0.013482222 0.015812529
0.010731111 -0.013927944 0.015377857
0.011117484 -0.013443913 0.015819212
-0.010161986 -0.012868481 0.015287545
-0.0092353364 -0.012547146 0.015437923
-0.0085936468 -0.012285568 0.015676431
-0.0072363345 -0.012480142 0.015133416
-0.0065219975 -0.012367895 0.015423435
-0.0053830221 -0.012806929 0.015331759
-0.0046212915 -0.012148304 0.015211227
-0.0036998983 -0.012443325 0.015448429
-0.0012454212 -0.012190025 0.01539381
-0.00056076207 -0.012329295 0.01555486
0.00043630664 -0.012571083 0.015535267
0.0014445364 -0.012190025 0.01539387
0.0022974955 -0.012705746 0.015746076
0.0044765626 -0.012227844 0.015523435
0.0050975913 -0.012849891 0.015925407
0.0065682638 -0.012388807 0.015377079
0.0071746223 -0.012657134 0.015218066
0.0093093626 -0.012482312 0.015391838
0.010507678 -0.012346703 0.015649201
0.011235377 -0.012943979 0.015462637
-0.0097970599 -0.011056132 0.01571011
-0.0086500077 -0.011176748 0.015804119
-0.0060552689 -0.011437155 0.015934598
-0.0035544792 -0.011578947 0.015494435
-0.0014753329 -0.011606349 0.015418441
0.00097006705 -0.011438711 0.015212901
0.0010405593 -0.011953635 0.015447928
0.0021526229 -0.011868945 0.015168916
0.0034127105 -0.011398507 0.015137069
0.0045700381 -0.011796582 0.015505655
0.0075702397 -0.011292154 0.015309326
0.0084976498 -0.011191749 0.015849439
0.0098547973 -0.011873016 0.01537662
0.010643054 -0.011451576 0.015331139
0.011219057 -0.011406807 0.015593568
-0.010442668 -0.01028241 0.015056929
-0.0093436213 -0.010897461 0.015353123
-0.0084720915 -0.010507575 0.015551488
-0.0065976703 -0.010931586 0.015471387
-0.0037340489 -0.010662152 0.015566735
-0.0023822493 -0.010392199 0.015219926
-0.0012453914 -0.010921637 0.015704829
-0.00024547291 -0.01064083 0.015543613
0.00049699098 -0.01088087 0.01565817
0.0014710057 -0.010749977 0.015630808
0.0022643288 -0.010195692 0.015564736
0.0033768646 -0.010462654 0.015572589
0.00417963 -0.010541233 0.015517414
0.0050606392 -0.010294136 0.01556305
0.0064512021 -0.010639506 0.015445737
0.0078589953 -0.010322081 0.015744889
0.0086553413 -0.010815758 0.015274347
0.0094279395 -0.010799621 0.015954792
0.011122318 -0.010329869 0.015901359
-0.010150589 -0.0098960884 0.01528765
-0.0092510935 -0.0095466841 0.015439662
-0.0074067852 -0.0095351972 0.015209911
-0.006502863 -0.0095200101 0.015374636
-0.0046212352 -0.0091740629 0.015210785
-0.0036839454 -0.0095626814 0.015448393
-0.0012453616 -0.0093916161 0.015395368
-0.00047343495 -0.0093261711 0.015387759
0.00012742879 -0.0096421484 0.015850388
0.0014513313 -0.0093916161 0.015395308
0.0022422667 -0.0093139112 0.01555049
0.0043892968 -0.009204872 0.015629789
0.0051098722 -0.0098944567 0.015929466
0.0065781772 -0.0095319739 0.015377356
0.0071675433 -0.0098372102 0.015628561
0.010507561 -0.009402982 0.015639015
-0.0095987199 -0.0082235318 0.015355763
-0.0085122539 -0.0082212631 0.015686441
-0.0065731471 -0.0084956111 0.015466094
-0.0055410871 -0.0080704698 0.015220966
-0.0035543672 -0.0084112892 0.015526569
-0.0018217687 -0.0088119032 0.015213225
-8.7016728e-05 -0.0080843754 0.015531784
0.00099249696 -0.0084470771 0.015214122
0.0033509964 -0.0081188045 0.015323528
0.0049779546 -0.0089474833 0.01516814
0.0063338876 -0.0080853403 0.015693605
0.0077900775 -0.0088029858 0.015167472
0.0081368955 -0.0085730618 0.015834823
0.0094729858 -0.0083837211 0.015466266
0.010710138 -0.0084064929 0.015135813
0.011219057 -0.0085551059 0.015593568
-0.0091983899 -0.0074104741 0.015639914
-0.0081508188 -0.007906151 0.015865283
-0.0064246166 -0.0074639618 0.015639061
-0.0037179796 -0.0074561718 0.015548101
-0.0021086442 -0.0079808887 0.015660537
-0.0014473092 -0.0076925103 0.015597207
-0.00054862886 -0.0073670633 0.015566825
0.0007082987 -0.0078595066 0.015437931
0.0015606985 -0.0074794246 0.015670519
0.0022644568 -0.0074725212 0.015565195
0.0030962271 -0.0073840804 0.015360288
0.0041428683 -0.0077735186 0.015709698
0.0050643967 -0.0075775022 0.01556366
0.0067512607 -0.0077422345 0.015462016
0.0077035408 -0.0076300134 0.015571888
0.008764077 -0.0077568172 0.015543208
0.0094957612 -0.0079193804 0.015944913
0.011127342 -0.0071857157 0.015984237
-0.010205192 -0.0068380111 0.015210663
-0.0093132146 -0.0067316708 0.015283416
-0.0083245467 -0.0061905482 0.015565757
-0.0074184109 -0.0065466762 0.015211101
-0.0065912143 -0.0065420675 0.015310382
-0.0046215216 -0.0061764121 0.015212008
-0.0036727895 -0.0064405552 0.015446443
-0.0012454212 -0.0065791002 0.015396882
-0.00046194566 -0.0062172241 0.015388968
0.00014154823 -0.0068504373 0.015849216
0.0014585988 -0.0064737154 0.015476665
0.0022426161 -0.0064347126 0.01555172
0.0045014862 -0.0063934308 0.015523448
0.0051222639 -0.0069150627 0.01593353
0.0064386195 -0.0066398606 0.015341925
0.007518162 -0.0060743224 0.015399926
0.0098561905 -0.0060757212 0.015310648
0.010378714 -0.006559249 0.015762085
-0.0095233694 -0.0055221203 0.015446368
-0.0084790839 -0.0053864555 0.015674176
-0.0065674372 -0.005338029 0.015468133
-0.003478203 -0.0056005791 0.015502131
-0.002308981 -0.0056508281 0.015223095
-0.0018102133 -0.0058042109 0.015212889
-7.8452867e-05 -0.0052639246 0.015531293
0.0010157009 -0.0054300725 0.015213742
0.0035144952 -0.0052356282 0.015456032
0.0041815424 -0.0055617276 0.015222302
0.0063338876 -0.0053902268 0.015693605
0.0081406524 -0.0058320565 0.015833728
0.0094304346 -0.0051982822 0.015967513
0.01058874 -0.0056746393 0.015296119
0.011219057 -0.0057034036 0.015593568
-0.01144474 -0.0040962398 0.015454181
-0.0092361011 -0.0043259845 0.015484576
-0.0082433717 -0.0048586447 0.015664978
-0.0064438535 -0.0044982424 0.015641011
-0.003784444 -0.0045471541 0.015692897
-0.0012454212 -0.0045921039 0.015712997
-0.00055210892 -0.0046303254 0.015567448
0.00037632842 -0.0043254672 0.015750293
0.001462537 -0.0045921039 0.015712937
0.002264661 -0.0047423821 0.015565824
0.0030913856 -0.0045567416 0.015209184
0.0041705845 -0.0045920443 0.015712878
0.005068141 -0.0048539024 0.015564142
0.0067951162 -0.0046340143 0.015464228
0.0078899357 -0.0046261298 0.015749577
0.008769501 -0.0046027806 0.015517798
0.0093723433 -0.0045253546 0.015517468
0.01092636 -0.004140791 0.0155528
-0.01016301 -0.0036637264 0.015210575
-0.0093765976 -0.0037523508 0.015398383
-0.0074301623 -0.0035337699 0.015212278
-0.0065802843 -0.0036929902 0.015310527
-0.005306466 -0.0031979596 0.015340603
-0.0046218745 -0.0031541854 0.015213214
-0.0036889755 -0.0036507193 0.015320766
-0.0011610801 -0.0038600757 0.015516151
-0.00058011198 -0.0034236512 0.015555513
0.00098281307 -0.0031854014 0.015224281
0.0015902161 -0.0035846792 0.01551679
0.0022432078 -0.0035472619 0.015553777
0.004369183 -0.0036450513 0.015513932
0.005134813 -0.0039114142 0.015937654
0.0065139788 -0.0036353853 0.01527183
0.0076648123 -0.0031892308 0.015195364
0.0081443908 -0.003097977 0.015832601
0.009638926 -0.0032944784 0.015251451
0.010143725 -0.0037009418 0.015918005
-0.0094041312 -0.0024947268 0.015553298
-0.0081154443 -0.0021833717 0.015711777
-0.0064472803 -0.0026188267 0.015552136
-0.0034297672 -0.0026489284 0.015513659
-0.0017990142 -0.0027726314 0.01521407
-0.00011055943 -0.0024690886 0.015373676
0.0013036989 -0.0022880824 0.015409357
0.0022648275 -0.0020052493 0.015566468
0.0035318062 -0.0023560692 0.015456626
0.0047176676 -0.0028860148 0.015640911
0.0050724121 -0.0021236241 0.015566485
0.0063180192 -0.0025910735 0.015620518
0.0076033496 -0.0022743491 0.015601426
0.0094277104 -0.0022896887 0.015941979
0.010458064 -0.0026568219 0.015411323
0.011219057 -0.0028517018 0.015593568
-0.009431201 -0.0014151998 0.015490344
-0.0081549361 -0.0016911717 0.015662616
-0.0065535954 -0.0014438031 0.015429658
-0.0037003271 -0.0014909359 0.015577449
-0.0014903848 -0.0014767967 0.015682783
-0.00055553857 -0.0018865764 0.015568137
0.00040836132 -0.0013824892 0.015748564
0.0014765441 -0.0013778522 0.015716268
0.0031058243 -0.0013749159 0.015209116
0.0041985093 -0.0013777926 0.015716208
0.0066630007 -0.0013380215 0.015429283
0.0078667914 -0.0011779551 0.015700737
0.0087755257 -0.0014763116 0.015493144
0.010747242 -0.0014985312 0.015835049
0.011436072 -0.0018674659 0.015013039
-0.010246819 -0.00088235037 0.015211027
-0.0093972506 -0.0009106861 0.015398059
-0.0087189432 -0.00091067888 0.015224338
-0.007441985 -0.00049617747 0.015213514
-0.0066680331 -0.00067723519 0.015380573
-0.0046222256 -0.00010713981 0.015214432
-0.0037416301 -0.00050679152 0.015436796
-0.0022334429 -0.00079410244 0.01522536
-0.0011506213 -0.00053264142 0.015518768
-0.00058346277 -0.00051933434 0.015557587
0.0014718651 -0.0009106861 0.015398059
0.0022437666 -0.00065100577 0.015555857
0.004421792 -0.00077264727 0.015407596
0.0051470194 -0.00088238018 0.015940301
0.0069064377 -0.0009106861 0.015398119
0.0077683553 -0.00055719819 0.015167094
0.00814813 -0.00037077209 0.015831416
0.0098557025 -0.00033304351 0.015245676
0.010265836 -0.00076818257 0.015844289
-0.010127638 0.00040874723 0.015056614
-0.0095987199 0 0.015355763
-0.008075594 0.00058238208 0.01586164
-0.0076316395 0.00068986416 0.015653223
-0.006458743 0.00022626373 0.015553008
-0.0034603174 0.0002820502 0.015516761
-0.0017877535 0.00028390111 0.015215379
-0.00020842605 0.00063299399 0.015422063
0.0014100794 0.00054346211 0.015428469
0.0022649867 0.00073893415 0.015567075
0.0031727708 0 0.015697431
0.0047663357 0.00056840386 0.015642513
0.0050761383 0.00061391038 0.015567113
0.0063396683 9.0547372e-05 0.015376294
0.0078735854 0.00048976624 0.015565438
0.0094028339 0.00042653235 0.015704552
0.010588787 0.00018905941 0.015255759
0.011219057 0 0.015593568
-0.0093692001 0.0015812541 0.015529309
-0.0081784725 0.001458626 0.015561627
-0.0079381354 0.0018700361 0.015556462
-0.0065529547 0.0016529455 0.015383435
-0.0054680188 0.0016108076 0.015226435
-0.0036920593 0.0016535915 0.015538936
-0.001245451 0.0019068182 0.015560359
-0.00067172688 0.0018220991 0.015169249
0.0004401528 0.0015444309 0.015746882
0.0014367418 0.0017812229 0.015473686
0.0021524739 0.00194107 0.015168556
0.0035231938 0.0011720738 0.015287283
0.0042111753 0.0019111078 0.015653096
0.006675154 0.0017062323 0.015447043
0.0077163056 0.001735757 0.015604157
0.0087801479 0.0016216571 0.015467893
0.009414929 0.0016122777 0.015149072
0.010489707 0.0015492355 0.015806001
0.011588644 0.0013366495 0.01515593
-0.010270207 0.002170722 0.015212179
-0.0095533198 0.002495436 0.015449923
-0.0074534821 0.0025672829 0.015213138
-0.0066186618 0.0026257578 0.015428079
-0.0046226196 0.0029650326 0.015215637
-0.0036051187 0.0027271823 0.015352651
-0.0018232632 0.0025064349 0.015466339
-0.00026134311 0.0028445343 0.015824899
0.0023362166 0.0025672829 0.015947228
0.0031457206 0.0024955398 0.015378363
0.0046868445 0.0022309141 0.015403005
0.0051597161 0.002170722 0.015944377
0.0063338876 0.0026951134 0.015693605
0.0077611282 0.0021773428 0.015167076
0.0081518013 0.0023495853 0.015830301
0.00957481 0.0026026457 0.015586972
0.010657221 0.002881587 0.015253096
0.011219057 0.0028517018 0.015593568
-0.010025567 0.0038834214 0.015056122
-0.0080506746 0.0033971679 0.015860472
-0.006240963 0.0038292527 0.015763413
-0.0035513171 0.0033241042 0.015584094
-0.0014054605 0.0035427311 0.015430747
-0.00032418218 0.0035998118 0.015463882
0.0010847746 0.0037686061 0.015217463
0.0022651663 0.0034901947 0.015567622
0.0048485566 0.0033837683 0.015553826
0.0050799432 0.0033584749 0.015567805
0.0063451347 0.0035848999 0.01505853
0.0078809569 0.0032277238 0.015565966
0.0094267773 0.0034996867 0.015827566
0.010507858 0.0038010615 0.015661852
-0.009356874 0.0044086906 0.015491998
-0.0087209735 0.0040293494 0.015227568
-0.0079819476 0.0045631635 0.015656879
-0.0065289196 0.0045789462 0.015284976
-0.0037396271 0.0046356665 0.0152846
-0.0021566749 0.0041790521 0.015228657
-0.0013093797 0.0047187442 0.015520127
-0.00039045751 0.0044770036 0.015112852
0.00047170359 0.0044550784 0.015745137
0.0016441029 0.0045565381 0.015523681
0.0021524616 0.0046818126 0.015168474
0.0035450784 0.0041502379 0.015286675
0.0045072548 0.0046959361 0.015456343
0.0067031514 0.0046884185 0.015324503
0.0078736488 0.0048744073 0.015557255
0.0087860506 0.0046932362 0.015443705
0.01068386 0.0045993594 0.015807258
0.011444615 0.0041671731 0.015188513
-0.010293862 0.0052489312 0.015213467
-0.0095506003 0.0055032456 0.015519934
-0.007607948 0.0057274057 0.015382957
-0.006636533 0.0053267898 0.015370317
-0.0036289743 0.0054886201 0.015447287
-0.0029435824 0.0056161284 0.015547458
-0.0012454212 0.0051502399 0.015724508
-2.0124018e-05 0.0054445043 0.015701411
0.0016450088 0.0052922401 0.01563357
0.0023373831 0.0056552412 0.015951408
0.0031553796 0.005546208 0.015378105
0.0042552529 0.0051502399 0.015724508
0.0051724911 0.0052489312 0.015948705
0.006386904 0.0053234007 0.015616134
0.007470814 0.0055288034 0.015646692
0.0081555275 0.0050631054 0.015829124
0.009574729 0.0053649582 0.015570902
0.01044381 0.0055176676 0.015464949
0.011219057 0.0057034036 0.015593568
-0.011545407 0.0061520557 0.015468014
-0.0091694435 0.0068984367 0.015370533
-0.0080258129 0.0062046479 0.015859222
-0.0071737343 0.0068611456 0.015642419
-0.0064059892 0.0066784318 0.015726026
-0.005429849 0.0066292034 0.015228826
-0.0046224482 0.0060635936 0.015215233
-0.0035102039 0.0064491602 0.015617165
-0.0017649324 0.0064732144 0.015217817
-0.00038273563 0.006294915 0.015626719
0.0011632914 0.0068428135 0.015223015
0.0022653113 0.006248544 0.0155682
0.0031366625 0.0069647669 0.015355658
0.0050455388 0.006165307 0.015602893
0.0063447915 0.006947428 0.015057977
0.0079530794 0.0069723846 0.015228186
0.009417301 0.0065240334 0.01543644
0.010390026 0.0067562256 0.015484445
-0.0095984088 0.0075029167 0.015444592
-0.0078958664 0.0076515721 0.015654506
-0.0065304535 0.0073984587 0.015284795
-0.0050221337 0.0072309184 0.015471481
-0.0037791941 0.007323829 0.01540555
-0.0011290428 0.0076790373 0.015524991
-0.00036875048 0.007538503 0.015113119
0.00050240685 0.0073492858 0.015742896
0.0014926969 0.0077003604 0.015400794
0.0021524406 0.0074155135 0.015168462
0.003996938 0.0073016845 0.015218001
0.004469397 0.0075367219 0.015468222
0.0067258961 0.0076366416 0.015324512
0.0077467272 0.0076254713 0.01516691
0.0082882317 0.0077138264 0.015664658
0.010880831 0.0074317511 0.015689045
0.011606546 0.0073823985 0.015385684
-0.010317639 0.0083526447 0.015214682
-0.0095790485 0.0083043789 0.015479825
-0.0074776537 0.0087687531 0.0152156
-0.0066192904 0.0083388342 0.015370977
-0.0040101828 0.0084660733 0.015727947
-0.0034981929 0.0083718915 0.01535458
-0.0012454212 0.0084660733 0.015727887
-2.0124018e-05 0.0081667565 0.015701411
0.0016488406 0.0083477832 0.015617496
0.0023381216 0.0087696603 0.015954154
0.0031727708 0.0081258444 0.015697431
0.0045577004 0.0085795233 0.015669335
0.0051364955 0.008610758 0.015760927
0.0063338876 0.0080853403 0.015693605
0.0074722837 0.0085953893 0.015647594
0.0088945283 0.0080421567 0.015622455
0.0095746052 0.0081206877 0.015554912
0.010637973 0.008363368 0.015442614
0.011219057 0.0085551059 0.015593568
-0.0092980796 0.0097325956 0.015463565
-0.0083617363 0.009048311 0.015543992
-0.0075656185 0.0096646389 0.0155467
-0.00630417 0.0096478341 0.015371339
-0.0046227979 0.0091869989 0.015216525
-0.003487342 0.0095490403 0.01554245
-0.0024384586 0.0093640015 0.015386892
-0.0017527981 0.0096075032 0.015217467
-0.00038191839 0.0092068762 0.015628057
0.00022670592 0.009750654 0.015843533
0.0018909867 0.009242177 0.015538724
0.0022659861 0.0090136481 0.015570588
0.0031508652 0.0094075138 0.015206538
0.00465577 0.0094664898 0.015230314
0.0050370963 0.0092135677 0.015634272
0.006506504 0.0090346672 0.015534059
0.0076100035 0.0094450889 0.015653176
0.0094283056 0.0090959296 0.015777554
0.010280233 0.0095656998 0.015384752
-0.0095437504 0.010640656 0.015356809
-0.0078118332 0.010713595 0.015651131
-0.0065859207 0.01059158 0.015544993
-0.0037335933 0.010805809 0.015369215
-0.0011341989 0.010611026 0.015515723
-0.00034078711 0.010465908 0.015434293
0.00084041501 0.010705426 0.015639085
0.0013160099 0.010315072 0.015310374
0.0021519011 0.010141963 0.015166485
0.0031727708 0.010834459 0.015697431
0.0043650265 0.010352364 0.015406055
0.0065850168 0.010566209 0.015344946
0.00773961 0.010339125 0.015166806
0.0084277475 0.010429582 0.015516449
0.009574458 0.010869881 0.015538996
0.010878861 0.010555062 0.015607286
0.011452342 0.010273426 0.015367807
-0.010341657 0.011482148 0.015215972
-0.0096902428 0.0114365 0.015720729
-0.0077330689 0.011853015 0.015536834
-0.0066086543 0.011619327 0.015382501
-0.0053913072 0.011769747 0.015232232
-0.0040247263 0.011816928 0.01573129
-0.003559364 0.011323981 0.015505433
-0.0012454212 0.011816928 0.01573129
-0.00053252309 0.011568465 0.015428077
0.0014365169 0.011896016 0.015481884
0.0023027456 0.011847717 0.015764818
0.0043132482 0.011816928 0.01573129
0.0051448946 0.011558408 0.015763395
0.007497848 0.01165037 0.015649587
0.0084705232 0.011089306 0.015768925
0.0095268842 0.011610815 0.015774902
0.010565215 0.011286518 0.015552852
0.011219057 0.011406807 0.015593568
-0.0091692265 0.012444269 0.015371913
-0.0082974024 0.012068323 0.015476781
-0.0064465851 0.012553652 0.015458246
-0.0046231737 0.012336568 0.015217697
-0.0035151683 0.0123803 0.015639495
-0.0017411432 0.012767144 0.015218625
-0.00040940964 0.012401569 0.015494722
0.00024058158 0.012492795 0.015842333
0.0019433779 0.012626962 0.015595114
0.0021519172 0.01286172 0.015166536
0.0031642332 0.012467252 0.015205776
0.0046593552 0.012887236 0.015553036
0.005067931 0.012183374 0.015632149
0.0065732114 0.012753963 0.015530221
0.0081593152 0.012185136 0.015231602
0.010459144 0.01271822 0.015575951
0.011642823 0.012606271 0.015003516
-0.0095531885 0.013644785 0.01551623
-0.0075549763 0.013609519 0.015595787
-0.006549526 0.013597098 0.015487438
-0.0036091928 0.013494167 0.015291592
-0.00265778 0.013225419 0.015538014
-0.0014410294 0.013358451 0.015442116
-2.0124018e-05 0.01361126 0.015701411
0.00088709663 0.013688502 0.015635798
0.0013314383 0.013357218 0.015311721
0.0031727708 0.013543074 0.015697431
0.0041638575 0.013574818 0.01531221
0.006328613 0.013372771 0.015367967
0.0074820947 0.013350236 0.015409832
0.0084325708 0.013243126 0.015511462
0.0095752347 0.013612844 0.015522981
0.010674604 0.0133997 0.015451949
-0.010365446 0.014638759 0.015215487
-0.0097258305 0.014053937 0.015055818
-0.0087245507 0.014277857 0.015233358
-0.0079500694 0.014583732 0.015856916
-0.0067388718 0.01448979 0.015656319
-0.003492554 0.014738142 0.015592776
-0.00199618 0.014500402 0.015233565
-0.00029794229 0.014816632 0.015463201
4.17314e-06 0.014408424 0.015057913
0.0022663428 0.014566002 0.015571752
0.0048693218 0.014494085 0.015425727
0.0051378105 0.014468051 0.015671248
0.0069976482 0.014073697 0.015219805
0.007910572 0.014250025 0.015568396
0.0084858648 0.014187089 0.015751971
0.0094289733 0.014750135 0.015856134
0.010658724 0.014444675 0.015279477
0.011219057 0.01425851 0.015593568
-0.0093220659 0.015212315 0.015493621
-0.0075022345 0.015074015 0.01521808
-0.0064672949 0.015209493 0.01538411
-0.0043314942 0.015357284 0.015477733
-0.0035328218 0.015419301 0.015608618
-0.0014873995 0.015577724 0.015478172
-0.00072267262 0.015575516 0.015597754
0.00025430403 0.015227976 0.015841193
0.0015486061 0.015202094 0.015736394
0.0022462062 0.015324732 0.015564632
0.0031774917 0.01549972 0.015205014
0.0045117545 0.015467995 0.015578899
0.0050971289 0.015128426 0.015628938
0.0063064825 0.015866935 0.015351152
0.0074310577 0.015473911 0.015451608
0.0081702424 0.01584949 0.015824679
0.010329669 0.0153021 0.01574089
-0.0095482115 0.016491229 0.015489826
-0.0076445481 0.016762691 0.015645487
-0.0065526082 0.016481483 0.015488429
-0.0040046694 0.016443908 0.015405338
-0.0034603428 0.016402364 0.015254465
-0.0025171312 0.016939778 0.015534122
-0.0012454212 0.016443878 0.015405457
-0.00035191991 0.016382959 0.015660426
0.0009347552 0.016648183 0.015633564
0.0015442249 0.016395977 0.0154294
0.0020954723 0.016673906 0.015529523
0.0031727708 0.016251689 0.015697431
0.0044131191 0.01675348 0.015429637
0.0064387373 0.016460093 0.015425667
0.0070323525 0.016443908 0.015405398
0.0087032299 0.01623328 0.015187301
0.0095928274 0.016508508 0.015512048
0.010877848 0.016404012 0.015536316
0.011655926 0.016780259 0.015173972
-0.011651916 0.017022546 0.015482185
-0.010389881 0.017820828 0.015216801
-0.009472765 0.017761894 0.015293973
-0.0075647496 0.017285472 0.015696876
-0.0063130017 0.017853709 0.015575697
-0.0053512678 0.017040465 0.015234729
-0.0034797529 0.017526502 0.015592714
-0.00029146642 0.017610874 0.015463123
0.00015491043 0.017812718 0.01544869
0.0014641942 0.01728349 0.015234936
0.0022665053 0.017352959 0.015572459
0.0051617222 0.017504308 0.015767515
0.0075873286 0.017305518 0.015485529
0.008501254 0.017283764 0.015735228
0.009432246 0.01739531 0.015703678
0.010657466 0.017612632 0.015200756
0.011219057 0.017110212 0.015593568
-0.0094361808 0.018323258 0.015658736
-0.0075142533 0.018267332 0.015217695
-0.0065151853 0.018485509 0.015449204
-0.0045364071 0.018512823 0.015482175
-0.0033754101 0.018154727 0.015403057
-0.0012454808 0.018624429 0.015739985
-0.00060373999 0.018458966 0.015567771
0.0015634774 0.018624429 0.015739985
0.0022468094 0.018273853 0.015566755
0.0031846643 0.018656965 0.015368745
0.004523193 0.018409772 0.015579075
0.0051274099 0.018050678 0.015626742
0.0063199284 0.018747589 0.015522003
0.0074497843 0.01853157 0.015453274
0.0081738699 0.018529253 0.015823551
0.0092923781 0.018805625 0.015960962
0.010327874 0.018103722 0.015703125
0.011308274 0.018817391 0.015087375
-0.0096058231 0.01921715 0.01536876
-0.0087261153 0.019595556 0.015235893
-0.0075612292 0.019750385 0.015643306
-0.0065557971 0.019371387 0.015489076
-0.0040118815 0.019389203 0.015405098
-0.003531358 0.019260561 0.01547983
-0.0016252816 0.019470679 0.015287519
-0.00048291276 0.019456893 0.015683856
0.00098202564 0.019584045 0.015631501
0.0015333852 0.019470131 0.015371244
0.0042874096 0.019389203 0.015405098
0.0051307781 0.019945156 0.015590529
0.0074898521 0.019596322 0.015488294
0.0087089809 0.019121144 0.015178561
0.0098576117 0.019352484 0.01502207
0.010877527 0.019284837 0.015520286
0.011219057 0.019961912 0.015593568
-0.0093040718 0.020558959 0.015444394
-0.0074645029 0.020511542 0.015693979
-0.0063047227 0.020713635 0.015371549
-0.0034654494 0.020440545 0.015486098
-0.0023798575 0.020594005 0.015529573
-0.00061534951 0.020613316 0.015369954
0.00012468982 0.020683601 0.015416217
0.001985505 0.020496475 0.015667781
0.002204994 0.020476518 0.015421648
0.0031760975 0.020931989 0.015351159
0.0044664275 0.020380676 0.01542912
0.0051574688 0.02094961 0.015624672
0.0065227943 0.020008378 0.015289234
0.0070959488 0.020535907 0.015222326
0.0085159391 0.020379197 0.015718363
0.0094347391 0.02013693 0.01567938
0.010459622 0.020650662 0.015494393
-0.010414474 0.021029657 0.015218056
-0.0095193889 0.021831516 0.015179455
-0.0075268215 0.021486625 0.015219012
-0.0064868592 0.021846635 0.015255245
-0.004623712 0.02194603 0.015219891
-0.0034770418 0.021590814 0.015446813
-0.000293958 0.021862522 0.015837206
0.0023430234 0.021486625 0.015971698
0.0031727708 0.021668918 0.015697431
0.0049347086 0.021095203 0.015417328
0.0052378653 0.021029687 0.015968667
0.0063196644 0.021469045 0.015521533
0.0078019761 0.021453992 0.015418583
0.0084455591 0.021594059 0.015495662
0.0092923781 0.021492144 0.015960962
0.010943539 0.021995472 0.015904125
0.011540927 0.021265725 0.015193384
-0.0096950848 0.022166122 0.01563134
-0.0076782545 0.022805341 0.015746683
-0.00665825 0.022486672 0.015630517
-0.0053107236 0.022442717 0.015238278
-0.0040441724 0.022216253 0.015575117
-0.0032367653 0.022719786 0.015462252
-0.0013986538 0.022280127 0.015457024
-0.0003548949 0.022062378 0.015610058
0.0013912192 0.022505477 0.015447572
0.0022668277 0.022948602 0.015573686
0.0032319115 0.022037692 0.015057353
0.0043520955 0.022216253 0.015575088
0.005106661 0.022769654 0.015571967
0.0074117477 0.022341235 0.015574045
0.0095344093 0.022507882 0.015454847
0.010844372 0.022248158 0.015305029
0.011219057 0.022813614 0.015593568
-0.0092923809 0.0235686 0.015445866
-0.0083061298 0.023320138 0.015491957
-0.0063048443 0.023480536 0.015371769
-0.0036306856 0.023351219 0.015564591
-0.0006150541 0.023366556 0.015371119
0.00016257446 0.023319446 0.015594877
0.0022232663 0.023772858 0.015343694
0.0031839341 0.023680974 0.015350301
0.0044622486 0.023569828 0.015405872
0.0051859641 0.023824871 0.015621612
0.0065544136 0.023365702 0.015287205
0.0074249231 0.02380679 0.01519338
0.0084150275 0.023606444 0.015741641
0.010460608 0.023516478 0.015491758
0.011320066 0.023241557 0.015219348
-0.010439331 0.024265677 0.015219292
-0.0095977886 0.024685329 0.015356054
-0.0075394819 0.024733223 0.015220226
-0.0065599009 0.02468049 0.015323732
-0.0058861966 0.024221964 0.015611624
-0.0034556494 0.024384161 0.015446107
-0.0022446881 0.024190586 0.015525099
-0.0014382456 0.024563957 0.015494752
-0.0004712462 0.024281066 0.015686098
0.00011564838 0.024075188 0.015056344
0.0021888413 0.024724802 0.015824154
0.0031727708 0.02437753 0.015697431
0.0052513275 0.024265707 0.015973087
0.0063193776 0.02418324 0.015521102
0.0087674521 0.024418984 0.015570871
0.0092923781 0.02417866 0.015960962
0.010945007 0.024962176 0.015944384
0.011418017 0.02484275 0.015132952
-0.0096752765 0.025451403 0.015578475
-0.0087277088 0.025048254 0.015238466
-0.0076250508 0.025653467 0.015744984
-0.0066927164 0.025349855 0.015503902
-0.0042449641 0.025368685 0.015459414
-0.0034617477 0.025710128 0.015726121
-0.0015030028 0.025481515 0.015404681
-0.00058447418 0.025574222 0.015776727
4.576752e-05 0.025997045 0.015351208
0.0014010733 0.025429124 0.015594363
0.0022670198 0.025757359 0.015574214
0.0032498953 0.025194587 0.015056797
0.0043744771 0.025451403 0.015578475
0.0052382159 0.025564795 0.015516469
0.0074366122 0.025429606 0.015576498
0.0094361398 0.025582215 0.015630828
0.010843201 0.025082117 0.015261558
0.01145213 0.025502492 0.015557671
-0.01143327 0.026396792 0.015615144
-0.0093830954 0.026399538 0.015600605
-0.0063605476 0.026215816 0.015575811
-0.0032509235 0.026362037 0.015357451
-0.0006401292 0.026296323 0.015166814
0.00030919304 0.026099551 0.015836576
0.0012538794 0.026151042 0.015223064
0.0024531013 0.026285499 0.015582714
0.0031916208 0.026415406 0.015349446
0.0044763223 0.026453868 0.015405887
0.0052155289 0.02667802 0.015619499
0.0063272715 0.026693128 0.015365805
0.0078435559 0.026256062 0.015419886
0.0085556693 0.026308322 0.015608437
0.0092923781 0.026865179 0.015960962
0.010460731 0.026383389 0.015489724
-0.010464314 0.027529098 0.015220617
-0.0095235715 0.027342509 0.015280541
-0.006578831 0.027399937 0.015434263
-0.0052685998 0.027985279 0.015240874
-0.0036915399 0.027403561 0.015460235
-0.0021106168 0.027732011 0.015521375
-2.8139912e-05 0.027371377 0.015651165
0.00015197974 0.027221644 0.015055866
0.0023914068 0.027390026 0.015517047
0.0031727708 0.027086148 0.015697431
0.0052648736 0.027529098 0.015977673
0.0068264119 0.027054291 0.015513408
0.0071964003 0.027110159 0.015223308
0.0085722208 0.027433498 0.015674019
0.0096299183 0.027680669 0.015861148
0.010876499 0.027919004 0.015474342
0.01133199 0.027747704 0.015353825
-0.011546659 0.02849951 0.015513305
-0.0093452409 0.028566141 0.015288455
-0.007566046 0.02832632 0.015569023
-0.0064708199 0.028355604 0.015289209
-0.0043289904 0.028401654 0.0153162
-0.0034544845 0.028758388 0.015584948
-0.0014631215 0.028643437 0.015316625
-0.00067981845 0.028643105 0.015600529
0.00019227609 0.028766437 0.015592897
0.0014618138 0.028291976 0.015424351
0.0023061289 0.028290939 0.015776956
0.0032676044 0.02831457 0.015056312
0.0043103453 0.02865389 0.015618507
0.0051144194 0.028380543 0.01557317
0.0075335368 0.028251573 0.015491536
0.0089292992 0.028998192 0.015358437
0.0094386172 0.028286822 0.015606876
0.011321235 0.028362306 0.015410597
-0.0094902515 0.029579429 0.015580757
-0.0066256309 0.029408058 0.015579645
-0.0054838657 0.029653601 0.015601687
-0.0044668652 0.029485008 0.015626971
-0.0034975067 0.029872503 0.01531461
-0.002948178 0.029251598 0.015055987
-0.0012454212 0.029112587 0.015752321
-2.0124018e-05 0.029944772 0.015701411
0.0014439574 0.029285263 0.015488397
0.0023750521 0.029087605 0.015612941
0.0031860406 0.029465105 0.015523043
0.0045485892 0.02938313 0.015380445
0.0051607951 0.029594105 0.015648108
0.0063270261 0.029524399 0.015365354
0.0075038504 0.02912757 0.015458371
0.0081896503 0.029182002 0.015820406
0.0092923781 0.029551696 0.015960962
0.010460794 0.029252136 0.015487593
-0.01048962 0.030820359 0.015221883
-0.0095898919 0.030377531 0.015449068
-0.0087299561 0.03063919 0.015242084
-0.0063927062 0.030457959 0.015530396
-0.0032464569 0.030096475 0.015703768
-0.0017404873 0.030982185 0.015242398
0.00018862542 0.030332185 0.015056475
0.0024877954 0.030852715 0.015513496
0.0054492108 0.030766202 0.015786957
0.0068870978 0.030492462 0.015509199
0.0076014875 0.03071842 0.015399272
0.0083378414 0.030379996 0.015600943
0.0096469996 0.030922895 0.015738284
0.010731111 0.030641476 0.015377857
0.011263974 0.03075519 0.015047463
-0.011121148 0.031964689 0.015525132
-0.010944312 0.031806093 0.015605547
-0.0093490072 0.031418227 0.015288271
-0.0075353063 0.031305324 0.015568346
-0.0064969971 0.031414662 0.015366428
-0.0043327995 0.031561818 0.01531668
-0.0035108533 0.031558219 0.015523563
-0.0016125492 0.031269737 0.015463283
-0.00061054761 0.031686448 0.015576814
0.00020707457 0.031473931 0.015591884
0.0013573326 0.031207588 0.015515247
0.0022382117 0.031396385 0.015557095
0.0032460329 0.031619709 0.015201772
0.0045228829 0.031579811 0.015467369
0.0052323276 0.031264193 0.015408631
0.0074115433 0.031561885 0.015286962
0.0087184124 0.031462401 0.015714046
0.010325967 0.031939719 0.015513036
0.011365674 0.031342834 0.015391658
-0.0095102368 0.032503795 0.01544603
-0.006617228 0.032620557 0.015607031
-0.0041155042 0.032685086 0.015756063
-0.0035919559 0.032583568 0.015564401
-0.0029313033 0.032525111 0.015340524
-0.001456996 0.032490626 0.015490368
-0.00044759898 0.032673471 0.015692174
0.00027296273 0.032813676 0.015592089
0.0014644635 0.032739788 0.015490064
0.0031000171 0.032351248 0.015843578
0.0044946549 0.032685146 0.015755944
0.0052726893 0.032316446 0.015614372
0.0063267159 0.032339007 0.01536493
0.007364708 0.032685086 0.015756063
0.0087892711 0.032803655 0.015794249
0.0096126879 0.032470167 0.015483025
0.010597509 0.032304153 0.015457892
0.011344196 0.032337774 0.015490729
-0.0094918888 0.033199854 0.015528049
-0.0077791717 0.033883609 0.015848653
-0.0062478068 0.033404034 0.015352134
-0.0052253762 0.033671595 0.015243622
-0.0030602296 0.033784211 0.015350314
0.00022409111 0.033405714 0.015055953
0.0012102053 0.033913806 0.015618882
0.0021310328 0.033367962 0.0156844
0.004292971 0.033294521 0.015225045
0.0069478899 0.033879571 0.015505759
0.0076308055 0.033805773 0.01540019
0.0084772557 0.033433527 0.015558278
0.0096478825 0.033728376 0.015686411
0.010731111 0.033427063 0.015377857
-0.010514647 0.034140896 0.015221561
-0.0093528107 0.034274377 0.015289037
-0.0073684333 0.034483351 0.015426653
-0.0064873318 0.034481868 0.015385618
-0.0055359593 0.034647681 0.015324101
-0.004048002 0.034344174 0.015411158
-0.0035285221 0.034322411 0.015528254
-0.001547582 0.034497112 0.015462325
-0.00061514828 0.034382872 0.015372161
0.0002217798 0.034170851 0.015590811
0.0017076475 0.034191631 0.015327511
0.0023371186 0.034375496 0.015559786
0.00325851 0.034489557 0.015201116
0.0045294426 0.034361184 0.015467498
0.0051891725 0.034073513 0.015749095
0.0063027637 0.034900948 0.015345125
0.0074190041 0.034399152 0.015287787
0.0085427063 0.034642532 0.015630845
0.0092923781 0.034924731 0.015960962
0.010324188 0.034672439 0.015476185
0.011219057 0.034220424 0.015593568
-0.01091879 0.035443209 0.015520751
-0.009553439 0.035420276 0.015465796
-0.0083150649 0.035289764 0.015507588
-0.0066008382 0.035458103 0.015477761
-0.0046252199 0.035143264 0.015225174
-0.0036000463 0.035519365 0.01556594
-0.0028742072 0.035473004 0.015338726
-0.0016556999 0.035650197 0.015224452
-0.00031646411 0.035266832 0.015846267
0.0031664353 0.035178959 0.015840955
0.0055708201 0.03548678 0.015597783
0.0063386615 0.035255823 0.015374739
0.0088318083 0.035810113 0.015430724
0.010599543 0.035313774 0.015491557
0.011435648 0.035024393 0.015418117
-0.0094001228 0.036562771 0.015495002
-0.0087316427 0.036377609 0.01524484
-0.0073852688 0.036454655 0.015804257
-0.0063396003 0.036403608 0.015504327
-0.0041311504 0.036296733 0.015759775
-0.0034948117 0.03664675 0.015510701
-0.0013744496 0.036570799 0.015505161
-0.00062662305 0.03699458 0.015164593
0.00024401078 0.036719415 0.015411708
0.0014079801 0.036389127 0.015533656
0.0043914062 0.036650036 0.015603724
0.0051264758 0.036851242 0.015576819
0.0076914723 0.036467511 0.015667407
0.0082473531 0.036978878 0.015988292
0.0096489806 0.036514089 0.015635397
0.010731111 0.036212653 0.015377857
-0.010505655 0.037269775 0.015409378
-0.0094900727 0.037657328 0.015497333
-0.0070793144 0.037172157 0.015627084
-0.0066280812 0.037548259 0.015496451
-0.0059076613 0.037425451 0.015055203
-0.0043848315 0.037451416 0.015705785
-0.0034903062 0.037496824 0.015580132
-0.0012454212 0.03738204 0.015412845
-0.00072739541 0.037190929 0.015633069
0.00057290029 0.037950117 0.015583573
0.0015645205 0.03738207 0.015412726
0.0023187036 0.037380159 0.015484178
0.0032381695 0.037530065 0.01536611
0.0046455078 0.037223525 0.015288856
0.0053883302 0.037505209 0.015614505
0.0063180691 0.037647508 0.015518958
0.0073024333 0.037220523 0.015326075
0.0085721798 0.037337266 0.015533768
0.009612035 0.037356235 0.015497924
0.010324201 0.0373942 0.015438635
0.011249529 0.03719838 0.015365049
-0.011307308 0.038834535 0.015631784
-0.010718382 0.038868874 0.015517152
-0.009527999 0.038411852 0.015354559
-0.0075907647 0.038000599 0.015223738
-0.006389013 0.038459282 0.015393103
-0.0046251477 0.038515005 0.01522478
-0.0036051187 0.038180552 0.015352651
-0.002816553 0.038392708 0.0153381
-0.0017227409 0.038029291 0.015509304
-0.00032248348 0.038313858 0.015847746
0.0023489026 0.038000539 0.015992718
0.0032931762 0.038064223 0.015979791
0.0055913646 0.038276017 0.015601492
0.0063430886 0.038463756 0.015055332
0.008798182 0.03837087 0.015382955
0.0094431853 0.038983352 0.01551152
0.010665379 0.038668428 0.015451846
0.011442524 0.038477149 0.01551399
-0.0096261697 0.039653417 0.015540421
-0.0089784507 0.039437748 0.015054177
-0.0072600408 0.039758518 0.015745595
-0.006210512 0.039593842 0.015165986
-0.0051816553 0.039505593 0.015247401
-0.0041470053 0.039946724 0.015765285
-0.0034191827 0.039319433 0.015587547
-0.0014443086 0.0394895 0.015495535
-0.00062301219 0.039652281 0.015164561
0.00026532621 0.039504439 0.015410875
0.0015766559 0.039727058 0.015463155
0.0022097901 0.039796352 0.015371513
0.003229592 0.039873425 0.015345132
0.0045987233 0.039763402 0.015584734
0.0051304456 0.039689709 0.015577449
0.0076999688 0.039718453 0.01550172
0.0082486216 0.039479025 0.015754169
0.0095955664 0.039507486 0.015826637
0.011219057 0.039923824 0.015593568
-0.01188584 0.040862057 0.015513716
-0.010566227 0.04086582 0.015224059
-0.0094726123 0.040672611 0.015332756
-0.006714588 0.040488407 0.015421873
-0.0058371881 0.040443093 0.015054664
-0.0044379891 0.040316314 0.015664183
-0.0037764795 0.040669557 0.015424944
-0.0012454212 0.04043597 0.01541429
-0.00031403371 0.040483646 0.015640253
0.0015719413 0.04043597 0.01541429
0.0027659489 0.040925756 0.015501752
0.0033114264 0.040673729 0.015575618
0.0043796175 0.040255688 0.015321001
0.0053386991 0.040738076 0.015800847
0.006229837 0.040505819 0.015537348
0.0072244257 0.040512677 0.015379637
0.0087208701 0.04029255 0.015595553
0.0093389321 0.040621731 0.015728299
0.01032419 0.040104777 0.015401168
0.011140682 0.040392462 0.01503605
-0.011211026 0.041669719 0.01562966
-0.0095712133 0.041326351 0.015530622
-0.0076039229 0.04138894 0.015225096
-0.0062267822 0.041525245 0.015522179
-0.0046255053 0.041914906 0.015226057
-0.0032464569 0.041040648 0.015703768
-0.002836341 0.041476946 0.015340041
-0.0015977724 0.041357227 0.015505121
-0.00073115039 0.041756414 0.015846366
0.0023501196 0.04138894 0.015997346
0.0063428106 0.041418456 0.015054836
0.0088105379 0.041385766 0.015377739
0.0096877478 0.041600924 0.015277006
0.010666402 0.041580513 0.015468891
0.011408678 0.041870594 0.015692219
-0.010266562 0.042190574 0.015549841
-0.009009677 0.042234126 0.015166746
-0.0088120922 0.042355232 0.015151231
-0.0077053509 0.042049419 0.015846401
-0.0065618567 0.042526059 0.015393881
-0.0047300681 0.042274572 0.015517301
-0.0035123848 0.042203419 0.015501633
-0.0015943972 0.042572483 0.015237555
-0.00061558658 0.042648502 0.015372124
0.00043119141 0.042437453 0.0154517
0.0013613368 0.042609133 0.015419418
0.0022173598 0.04247022 0.015479736
0.0032370407 0.042522959 0.015344267
0.0046216357 0.042312808 0.015493844
0.0051343353 0.042535603 0.015578106
0.0063011819 0.04284703 0.0153426
0.0078205662 0.042339958 0.015370267
0.0082075875 0.042349946 0.015814871
0.0094957957 0.042561974 0.015825242
0.010322456 0.04280398 0.015364867
0.011219057 0.042775527 0.015593568
-0.009619276 0.043697465 0.015468697
-0.0070807459 0.043638438 0.015769087
-0.0066237338 0.043613918 0.01542618
-0.0057674292 0.043426059 0.015054205
-0.0041997912 0.043514784 0.015724109
-0.0035717811 0.043498021 0.015428916
-0.0027253237 0.043896947 0.015615284
-0.0012454063 0.043572634 0.015591545
-2.0124018e-05 0.043556035 0.015701411
0.0016257494 0.04357262 0.015591575
0.0025208518 0.043712914 0.015519399
0.0033607639 0.043512147 0.015574305
0.0044678333 0.043552265 0.015470169
0.0054698549 0.043173552 0.015516639
0.0063338876 0.043121815 0.015693605
0.0072863833 0.043627411 0.015559158
0.0086274482 0.043450192 0.015588205
0.011222594 0.043657787 0.015242777
-0.011117009 0.044481561 0.015626479
-0.010592319 0.044271994 0.015225405
-0.0097970599 0.044224527 0.01571011
-0.0089960769 0.044896979 0.015164763
-0.0076493667 0.044782061 0.015535872
-0.0064094639 0.044607546 0.015403916
-0.0034995689 0.044870611 0.015501006
-0.0028237847 0.044462234 0.01520078
-0.0014735814 0.044635966 0.015501719
-0.00061608618 0.044947512 0.015164447
0.0002808047 0.044854239 0.015587481
0.0013858313 0.044976123 0.015608829
0.0025033604 0.044573456 0.015330665
0.0046240846 0.044947274 0.015493236
0.0053341249 0.044271935 0.015999008
0.0063425032 0.04433988 0.015054401
0.0075511248 0.044523314 0.015196204
0.0086968197 0.044587024 0.015456952
0.0094445348 0.044260174 0.015464406
0.010667391 0.044499926 0.015485977
0.011496965 0.044081654 0.015671792
-0.010329081 0.045561004 0.015508633
-0.0088027744 0.045418128 0.015053263
-0.0068462994 0.045573182 0.015619864
-0.0055022431 0.045296047 0.01537771
-0.0044843056 0.045173481 0.015401736
-0.0038692544 0.045432512 0.015698873
-0.0016178805 0.045885142 0.015228443
-0.00061517116 0.045861538 0.015580349
0.00036187749 0.045350641 0.015054036
0.0022037986 0.045792326 0.015415017
0.003244529 0.04515874 0.015343501
0.0051382612 0.045388963 0.01557864
0.006298712 0.045675974 0.015534091
0.0079940418 0.045154639 0.015576996
0.0089581655 0.045916095 0.015145509
0.009497066 0.045335397 0.015779743
0.010322417 0.045492381 0.015327691
0.011219057 0.045627229 0.015593568
-0.0095107295 0.046588048 0.015412113
-0.0065212995 0.046553764 0.015410949
-0.0056977021 0.046375729 0.015054934
-0.0041360823 0.046443626 0.015700061
-0.0035742659 0.046274487 0.015429132
-0.0026651435 0.04664186 0.015613252
-0.0012454212 0.046593063 0.015415618
-0.0004104292 0.046224393 0.015700933
0.0014971166 0.046511538 0.0153217
0.0022842032 0.04691245 0.015702024
0.0034093272 0.046329897 0.015572637
0.0044339369 0.046784922 0.015322129
0.0054124454 0.046033122 0.01560247
0.0072151218 0.046759419 0.015453018
0.0087573426 0.046796128 0.015089003
0.0096886791 0.046503842 0.015269157
0.011263624 0.046471402 0.015506862
-0.011022171 0.047271673 0.015624373
-0.010332907 0.047539525 0.01549989
-0.0095651429 0.047079727 0.015577738
-0.0089818891 0.047553159 0.015164758
-0.0073853368 0.047414877 0.015808523
-0.0061787618 0.047563851 0.015165788
-0.004179311 0.047371276 0.015772909
-0.0034868093 0.047531053 0.01550038
-0.002786366 0.047250446 0.015200157
-0.0012988714 0.047618043 0.015635313
-0.00061262853 0.047585092 0.015164325
0.00029526092 0.047499321 0.015586495
0.0014216317 0.047612909 0.015648985
0.0025479859 0.047494002 0.015329001
0.0032519512 0.04778086 0.015342573
0.0046251891 0.047507215 0.015586111
0.0053855986 0.047658347 0.015703648
0.0063422127 0.047228403 0.015053914
0.0075681345 0.047504794 0.015388894
0.0085469466 0.047769137 0.015614259
0.0093440693 0.047866538 0.015815319
0.010667523 0.047427118 0.015503362
-0.010074828 0.048699789 0.015602949
-0.0094003798 0.048929788 0.015001416
-0.0085920841 0.04823789 0.015276772
-0.0076307561 0.048254371 0.015227851
-0.0067264093 0.048629388 0.01530911
-0.0057130465 0.048344307 0.015501076
-0.0046262713 0.048804004 0.015228786
-0.0037419037 0.048955828 0.015292192
-0.0014641182 0.048795246 0.015251918
-0.00061878166 0.048736859 0.015580952
